ply
    format ascii 1.0
    element vertex 59566
    property float x
    property float y
    property float z
    property uchar red
    property uchar green
    property uchar blue
    end_header
0.257812 0.160156 -0.083826 105 104 100
0.261719 0.160156 -0.082951 124 123 119
0.265625 0.160156 -0.081517 50 49 45
0.269531 0.160156 -0.079804 9 8 4
0.273438 0.160156 -0.076400 9 8 6
0.277344 0.160156 -0.073945 67 66 64
0.281250 0.160156 -0.069248 124 123 121
0.285156 0.160156 -0.062369 119 117 118
-0.214844 0.156250 -0.045500 22 21 22
-0.210938 0.156250 -0.055900 97 97 97
-0.207031 0.156250 -0.061968 33 33 33
-0.203125 0.156250 -0.067256 35 35 35
-0.199219 0.156250 -0.072106 83 83 83
-0.195312 0.156250 -0.076405 42 42 42
-0.191406 0.156250 -0.080209 8 8 6
-0.187500 0.156250 -0.083515 56 56 54
-0.183594 0.156250 -0.086141 89 89 87
-0.179688 0.156250 -0.088118 19 19 17
-0.175781 0.156250 -0.089837 38 38 36
-0.171875 0.156250 -0.091176 113 113 111
-0.167969 0.156250 -0.091584 17 17 15
-0.164062 0.156250 -0.091014 22 22 20
-0.160156 0.156250 -0.090212 122 122 120
-0.156250 0.156250 -0.088934 11 11 9
-0.152344 0.156250 -0.086942 17 17 15
-0.148438 0.156250 -0.083925 103 103 101
-0.144531 0.156250 -0.080930 14 14 12
-0.140625 0.156250 -0.077330 5 5 3
-0.136719 0.156250 -0.072202 56 56 54
-0.132812 0.156250 -0.066424 46 46 44
-0.128906 0.156250 -0.059548 14 13 11
-0.125000 0.156250 -0.053081 23 22 20
-0.109375 0.156250 -0.022128 2 1 38
-0.105469 0.156250 -0.032229 20 19 17
-0.101562 0.156250 -0.043046 10 9 7
-0.097656 0.156250 -0.052791 41 40 38
-0.093750 0.156250 -0.060002 61 60 58
-0.089844 0.156250 -0.066327 49 48 46
-0.085938 0.156250 -0.072131 24 23 21
-0.082031 0.156250 -0.077405 16 15 13
-0.078125 0.156250 -0.082597 13 12 10
-0.074219 0.156250 -0.086732 38 37 35
-0.070312 0.156250 -0.090205 91 90 88
-0.066406 0.156250 -0.093375 122 121 119
-0.062500 0.156250 -0.096373 64 63 61
-0.058594 0.156250 -0.099052 26 25 23
-0.054688 0.156250 -0.101353 16 15 13
-0.050781 0.156250 -0.103526 27 26 24
-0.046875 0.156250 -0.105428 19 18 16
-0.042969 0.156250 -0.107277 68 67 65
-0.039062 0.156250 -0.108898 133 132 131
-0.035156 0.156250 -0.110540 123 122 120
-0.031250 0.156250 -0.111987 70 70 68
-0.027344 0.156250 -0.113175 26 25 23
-0.023438 0.156250 -0.114153 17 16 14
-0.019531 0.156250 -0.114866 14 13 11
-0.015625 0.156250 -0.115419 7 6 4
-0.011719 0.156250 -0.115446 21 20 18
-0.007812 0.156250 -0.115150 47 46 44
-0.003906 0.156250 -0.114643 112 111 109
0.000000 0.156250 -0.114143 122 121 119
0.003906 0.156250 -0.113701 127 126 124
0.007812 0.156250 -0.113318 114 113 111
0.011719 0.156250 -0.112972 87 86 84
0.015625 0.156250 -0.112715 63 62 60
0.019531 0.156250 -0.112656 53 52 50
0.023438 0.156250 -0.112913 52 51 49
0.027344 0.156250 -0.113329 41 40 38
0.031250 0.156250 -0.113981 39 38 36
0.035156 0.156250 -0.114828 35 34 32
0.039062 0.156250 -0.115750 32 31 29
0.042969 0.156250 -0.116836 32 30 29
0.046875 0.156250 -0.117736 56 41 45
0.050781 0.156250 -0.118739 32 31 29
0.074219 0.156250 -0.123333 90 89 87
0.078125 0.156250 -0.123573 75 76 77
0.082031 0.156250 -0.123796 123 122 120
0.085938 0.156250 -0.124157 90 89 87
0.089844 0.156250 -0.124178 44 44 42
0.093750 0.156250 -0.123921 38 38 36
0.097656 0.156250 -0.123280 28 27 26
0.101562 0.156250 -0.122339 15 14 12
0.105469 0.156250 -0.121317 8 7 5
0.109375 0.156250 -0.120372 13 12 10
0.113281 0.156250 -0.119625 21 20 18
0.117188 0.156250 -0.118999 24 23 21
0.121094 0.156250 -0.118325 34 33 31
0.125000 0.156250 -0.117539 69 68 66
0.128906 0.156250 -0.116490 71 70 68
0.132812 0.156250 -0.115150 132 131 129
0.136719 0.156250 -0.113755 156 155 153
0.140625 0.156250 -0.112175 128 127 125
0.144531 0.156250 -0.110274 133 132 130
0.148438 0.156250 -0.108006 90 89 87
0.152344 0.156250 -0.105572 80 79 77
0.156250 0.156250 -0.102956 73 72 70
0.160156 0.156250 -0.100187 72 71 69
0.164062 0.156250 -0.097318 72 71 69
0.167969 0.156250 -0.094315 55 54 52
0.171875 0.156250 -0.091115 24 23 21
0.175781 0.156250 -0.087747 9 8 6
0.179688 0.156250 -0.084225 12 11 9
0.183594 0.156250 -0.080550 15 14 12
0.187500 0.156250 -0.076589 12 11 9
0.191406 0.156250 -0.071296 16 15 13
0.195312 0.156250 -0.063433 11 10 8
0.199219 0.156250 -0.053651 3 2 23
0.203125 0.156250 -0.040675 48 47 45
0.207031 0.156250 -0.033761 101 100 98
0.210938 0.156250 -0.041802 91 90 88
0.214844 0.156250 -0.051706 35 34 32
0.218750 0.156250 -0.060323 17 16 14
0.222656 0.156250 -0.067126 5 4 2
0.226562 0.156250 -0.072457 85 84 82
0.230469 0.156250 -0.076563 136 135 133
0.234375 0.156250 -0.079888 73 72 70
0.238281 0.156250 -0.082130 19 18 16
0.242188 0.156250 -0.083513 8 7 5
0.246094 0.156250 -0.084704 28 27 22
0.250000 0.156250 -0.085564 65 64 59
0.253906 0.156250 -0.085624 135 134 129
0.257812 0.156250 -0.084804 81 80 76
0.261719 0.156250 -0.083928 23 22 18
0.265625 0.156250 -0.082519 12 11 7
0.269531 0.156250 -0.080824 42 41 37
0.273438 0.156250 -0.077213 82 81 79
0.277344 0.156250 -0.075058 122 121 119
0.281250 0.156250 -0.070428 86 85 83
0.285156 0.156250 -0.062928 33 31 32
-0.214844 0.152344 -0.048458 29 29 29
-0.210938 0.152344 -0.056275 11 11 11
-0.207031 0.152344 -0.062414 97 97 97
-0.203125 0.152344 -0.067895 31 31 31
-0.199219 0.152344 -0.072445 10 10 10
-0.195312 0.152344 -0.076696 125 125 125
-0.191406 0.152344 -0.080444 49 49 47
-0.187500 0.152344 -0.083649 19 19 17
-0.183594 0.152344 -0.086183 72 72 70
-0.179688 0.152344 -0.088079 79 79 77
-0.175781 0.152344 -0.089747 4 4 2
-0.171875 0.152344 -0.091046 52 52 50
-0.167969 0.152344 -0.091389 106 106 104
-0.164062 0.152344 -0.090755 12 12 10
-0.160156 0.152344 -0.089930 23 23 21
-0.156250 0.152344 -0.088638 107 107 105
-0.152344 0.152344 -0.086635 5 5 3
-0.148438 0.152344 -0.083614 24 24 22
-0.144531 0.152344 -0.080570 81 81 79
-0.140625 0.152344 -0.076971 9 9 7
-0.136719 0.152344 -0.071697 21 21 19
-0.132812 0.152344 -0.065692 46 46 44
-0.128906 0.152344 -0.058453 31 30 28
-0.125000 0.152344 -0.051808 14 13 11
-0.109375 0.152344 -0.024370 3 2 10
-0.105469 0.152344 -0.032994 10 9 7
-0.101562 0.152344 -0.044148 33 32 30
-0.097656 0.152344 -0.053388 32 31 29
-0.093750 0.152344 -0.060379 64 63 61
-0.089844 0.152344 -0.066543 99 98 96
-0.085938 0.152344 -0.072138 92 91 89
-0.082031 0.152344 -0.077221 42 41 39
-0.078125 0.152344 -0.082241 4 3 1
-0.074219 0.152344 -0.086272 4 3 1
-0.070312 0.152344 -0.089707 18 17 15
-0.066406 0.152344 -0.092815 57 56 54
-0.062500 0.152344 -0.095771 110 109 107
-0.058594 0.152344 -0.098400 108 107 105
-0.054688 0.152344 -0.100643 43 42 40
-0.050781 0.152344 -0.102870 39 38 36
-0.046875 0.152344 -0.104858 15 14 12
-0.042969 0.152344 -0.106789 15 14 12
-0.039062 0.152344 -0.108526 29 28 26
-0.035156 0.152344 -0.110224 92 91 89
-0.031250 0.152344 -0.111716 127 126 124
-0.027344 0.152344 -0.112963 133 132 130
-0.023438 0.152344 -0.113989 84 83 82
-0.019531 0.152344 -0.114775 30 29 27
-0.015625 0.152344 -0.115393 11 10 8
-0.011719 0.152344 -0.115467 12 11 9
-0.007812 0.152344 -0.115217 11 10 8
-0.003906 0.152344 -0.114747 14 13 11
0.000000 0.152344 -0.114274 29 28 26
0.003906 0.152344 -0.113852 56 55 53
0.007812 0.152344 -0.113483 88 87 85
0.011719 0.152344 -0.113140 117 116 114
0.015625 0.152344 -0.112887 136 135 133
0.019531 0.152344 -0.112842 142 141 139
0.023438 0.152344 -0.113115 143 142 140
0.027344 0.152344 -0.113543 132 131 129
0.031250 0.152344 -0.114188 128 127 125
0.035156 0.152344 -0.115020 124 123 121
0.039062 0.152344 -0.115897 123 122 120
0.042969 0.152344 -0.116950 124 119 119
0.046875 0.152344 -0.117833 69 51 60
0.050781 0.152344 -0.118821 123 122 120
0.074219 0.152344 -0.123470 20 19 17
0.078125 0.152344 -0.123687 38 38 38
0.082031 0.152344 -0.123899 35 34 32
0.085938 0.152344 -0.124270 20 19 17
0.089844 0.152344 -0.124275 18 17 15
0.093750 0.152344 -0.123973 13 12 10
0.097656 0.152344 -0.123305 18 17 15
0.101562 0.152344 -0.122342 27 26 24
0.105469 0.152344 -0.121303 25 24 22
0.109375 0.152344 -0.120332 27 26 24
0.113281 0.152344 -0.119522 57 56 54
0.117188 0.152344 -0.118811 95 94 92
0.121094 0.152344 -0.118065 111 110 108
0.125000 0.152344 -0.117200 138 137 135
0.128906 0.152344 -0.116057 136 135 133
0.132812 0.152344 -0.114617 98 97 95
0.136719 0.152344 -0.113103 62 61 59
0.140625 0.152344 -0.111403 40 39 37
0.144531 0.152344 -0.109412 25 24 22
0.148438 0.152344 -0.107068 17 16 14
0.152344 0.152344 -0.104538 24 23 21
0.156250 0.152344 -0.101848 29 28 26
0.160156 0.152344 -0.099007 17 16 14
0.164062 0.152344 -0.096087 33 32 30
0.167969 0.152344 -0.093070 26 25 23
0.171875 0.152344 -0.089867 27 26 24
0.175781 0.152344 -0.086476 6 5 3
0.179688 0.152344 -0.082932 16 15 13
0.183594 0.152344 -0.079259 13 12 10
0.187500 0.152344 -0.075303 13 12 10
0.191406 0.152344 -0.070095 5 4 2
0.195312 0.152344 -0.062476 21 20 18
0.199219 0.152344 -0.052919 72 71 69
0.203125 0.152344 -0.040586 100 99 97
0.207031 0.152344 -0.035119 66 65 63
0.210938 0.152344 -0.044298 15 14 12
0.214844 0.152344 -0.054827 3 2 14
0.218750 0.152344 -0.062910 48 47 45
0.222656 0.152344 -0.068980 92 91 89
0.226562 0.152344 -0.073915 87 86 84
0.230469 0.152344 -0.077823 43 42 40
0.234375 0.152344 -0.081051 16 15 13
0.238281 0.152344 -0.083240 22 21 19
0.242188 0.152344 -0.084569 32 31 29
0.246094 0.152344 -0.085648 127 126 121
0.250000 0.152344 -0.086412 99 98 93
0.253906 0.152344 -0.086435 37 36 31
0.257812 0.152344 -0.085610 16 15 11
0.261719 0.152344 -0.084750 11 10 6
0.265625 0.152344 -0.083355 61 60 56
0.269531 0.152344 -0.081638 107 106 102
0.273438 0.152344 -0.077876 133 132 130
0.277344 0.152344 -0.075886 33 32 30
0.281250 0.152344 -0.071620 22 21 19
0.285156 0.152344 -0.064378 29 27 28
-0.218750 0.148438 -0.038060 9 9 9
-0.214844 0.148438 -0.049310 118 118 118
-0.210938 0.148438 -0.056678 1 1 1
-0.207031 0.148438 -0.063073 9 9 9
-0.203125 0.148438 -0.068269 127 127 127
-0.199219 0.148438 -0.072714 31 31 31
-0.195312 0.148438 -0.076912 4 4 4
-0.191406 0.148438 -0.080544 126 126 124
-0.187500 0.148438 -0.083710 47 47 45
-0.183594 0.148438 -0.086203 4 4 2
-0.179688 0.148438 -0.087997 102 102 100
-0.175781 0.148438 -0.089571 78 78 76
-0.171875 0.148438 -0.090799 9 9 7
-0.167969 0.148438 -0.091079 61 61 59
-0.164062 0.148438 -0.090426 95 95 93
-0.160156 0.148438 -0.089596 9 9 7
-0.156250 0.148438 -0.088261 50 50 48
-0.152344 0.148438 -0.086229 75 75 73
-0.148438 0.148438 -0.083189 10 10 8
-0.144531 0.148438 -0.080086 20 20 18
-0.140625 0.148438 -0.076487 68 68 66
-0.136719 0.148438 -0.071049 19 19 17
-0.132812 0.148438 -0.064871 2 2 23
-0.128906 0.148438 -0.057515 49 48 46
-0.125000 0.148438 -0.049561 24 23 21
-0.109375 0.148438 -0.027317 7 6 4
-0.105469 0.148438 -0.034331 9 8 6
-0.101562 0.148438 -0.045314 21 20 18
-0.097656 0.148438 -0.054190 40 39 37
-0.093750 0.148438 -0.060947 19 18 16
-0.089844 0.148438 -0.066901 26 25 23
-0.085938 0.148438 -0.072274 87 86 84
-0.082031 0.148438 -0.077169 128 127 125
-0.078125 0.148438 -0.082030 87 86 84
-0.074219 0.148438 -0.085942 33 32 30
-0.070312 0.148438 -0.089297 30 29 27
-0.066406 0.148438 -0.092357 18 17 15
-0.062500 0.148438 -0.095268 27 26 24
-0.058594 0.148438 -0.097850 81 80 78
-0.054688 0.148438 -0.100092 145 144 142
-0.050781 0.148438 -0.102360 67 66 64
-0.046875 0.148438 -0.104405 37 36 34
-0.042969 0.148438 -0.106397 19 18 16
-0.039062 0.148438 -0.108203 21 20 18
-0.035156 0.148438 -0.109958 10 9 7
-0.031250 0.148438 -0.111492 53 52 50
-0.027344 0.148438 -0.112775 101 100 98
-0.023438 0.148438 -0.113835 124 123 121
-0.019531 0.148438 -0.114664 116 115 113
-0.015625 0.148438 -0.115325 88 87 85
-0.011719 0.148438 -0.115433 52 51 49
-0.007812 0.148438 -0.115212 26 25 23
-0.003906 0.148438 -0.114769 16 15 13
0.000000 0.148438 -0.114328 11 10 8
0.003906 0.148438 -0.113937 9 8 6
0.007812 0.148438 -0.113592 16 15 13
0.011719 0.148438 -0.113274 28 27 25
0.015625 0.148438 -0.113045 41 40 38
0.019531 0.148438 -0.113030 49 48 46
0.023438 0.148438 -0.113328 52 51 49
0.027344 0.148438 -0.113773 56 55 53
0.031250 0.148438 -0.114426 63 62 60
0.035156 0.148438 -0.115246 73 72 70
0.039062 0.148438 -0.116078 80 79 77
0.042969 0.148438 -0.117113 80 76 75
0.046875 0.148438 -0.117993 60 40 47
0.050781 0.148438 -0.118959 80 79 77
0.074219 0.148438 -0.123513 12 11 9
0.078125 0.148438 -0.123709 17 17 16
0.082031 0.148438 -0.123917 15 14 12
0.085938 0.148438 -0.124295 12 11 9
0.089844 0.148438 -0.124294 20 19 17
0.093750 0.148438 -0.123978 23 22 20
0.097656 0.148438 -0.123318 29 28 26
0.101562 0.148438 -0.122351 44 43 41
0.105469 0.148438 -0.121308 75 74 72
0.109375 0.148438 -0.120309 116 115 113
0.113281 0.148438 -0.119429 144 143 141
0.117188 0.148438 -0.118619 154 153 152
0.121094 0.148438 -0.117773 89 88 86
0.125000 0.148438 -0.116800 48 47 45
0.128906 0.148438 -0.115542 45 44 42
0.132812 0.148438 -0.114003 41 40 38
0.136719 0.148438 -0.112368 4 3 1
0.140625 0.148438 -0.110540 7 6 4
0.144531 0.148438 -0.108449 28 27 25
0.148438 0.148438 -0.106019 12 11 9
0.152344 0.148438 -0.103397 44 43 41
0.156250 0.148438 -0.100635 29 28 26
0.160156 0.148438 -0.097732 19 18 16
0.164062 0.148438 -0.094773 22 21 19
0.167969 0.148438 -0.091733 33 32 30
0.171875 0.148438 -0.088509 15 14 12
0.175781 0.148438 -0.085100 5 4 2
0.179688 0.148438 -0.081561 12 11 9
0.183594 0.148438 -0.077936 10 9 7
0.187500 0.148438 -0.074072 15 14 12
0.191406 0.148438 -0.069004 41 40 38
0.195312 0.148438 -0.061718 92 91 89
0.199219 0.148438 -0.052340 72 71 69
0.203125 0.148438 -0.040708 24 23 21
0.207031 0.148438 -0.036931 12 11 9
0.210938 0.148438 -0.047144 22 21 19
0.214844 0.148438 -0.057854 55 54 52
0.218750 0.148438 -0.065280 95 94 92
0.222656 0.148438 -0.070916 89 88 86
0.226562 0.148438 -0.075470 41 40 38
0.230469 0.148438 -0.079132 11 10 8
0.234375 0.148438 -0.082198 19 18 16
0.238281 0.148438 -0.084263 64 63 61
0.242188 0.148438 -0.085498 118 117 115
0.246094 0.148438 -0.086461 83 82 77
0.250000 0.148438 -0.087146 40 39 34
0.253906 0.148438 -0.087156 8 7 2
0.257812 0.148438 -0.086329 25 24 20
0.261719 0.148438 -0.085452 84 83 79
0.265625 0.148438 -0.084044 144 143 139
0.269531 0.148438 -0.082324 77 76 72
0.273438 0.148438 -0.078551 17 16 14
0.277344 0.148438 -0.076688 19 18 16
0.281250 0.148438 -0.072460 20 19 17
0.285156 0.148438 -0.065468 62 60 61
-0.218750 0.144531 -0.040267 30 30 30
-0.214844 0.144531 -0.049600 37 37 37
-0.210938 0.144531 -0.057175 138 138 138
-0.207031 0.144531 -0.063480 30 30 30
-0.203125 0.144531 -0.068637 16 16 16
-0.199219 0.144531 -0.072989 129 129 129
-0.195312 0.144531 -0.077035 25 25 25
-0.191406 0.144531 -0.080581 30 30 28
-0.187500 0.144531 -0.083703 109 109 108
-0.183594 0.144531 -0.086114 33 33 31
-0.179688 0.144531 -0.087790 15 15 13
-0.175781 0.144531 -0.089266 95 95 93
-0.171875 0.144531 -0.090398 52 52 50
-0.167969 0.144531 -0.090629 10 10 8
-0.164062 0.144531 -0.089995 66 66 64
-0.160156 0.144531 -0.089116 59 59 57
-0.156250 0.144531 -0.087695 19 19 17
-0.152344 0.144531 -0.085648 50 50 48
-0.148438 0.144531 -0.082584 53 53 51
-0.144531 0.144531 -0.079430 17 17 15
-0.140625 0.144531 -0.075826 33 33 31
-0.136719 0.144531 -0.070113 45 45 43
-0.132812 0.144531 -0.063455 21 21 19
-0.128906 0.144531 -0.055978 21 20 18
-0.125000 0.144531 -0.047119 18 17 15
-0.113281 0.144531 -0.009325 5 4 2
-0.109375 0.144531 -0.028837 2 1 10
-0.105469 0.144531 -0.036028 17 16 14
-0.101562 0.144531 -0.046708 37 36 34
-0.097656 0.144531 -0.055099 51 50 48
-0.093750 0.144531 -0.061598 26 25 23
-0.089844 0.144531 -0.067394 13 12 10
-0.085938 0.144531 -0.072561 10 9 7
-0.082031 0.144531 -0.077239 35 34 32
-0.078125 0.144531 -0.081949 95 94 92
-0.074219 0.144531 -0.085727 106 105 103
-0.070312 0.144531 -0.088956 52 51 49
-0.066406 0.144531 -0.091979 23 22 20
-0.062500 0.144531 -0.094846 27 26 24
-0.058594 0.144531 -0.097396 16 15 13
-0.054688 0.144531 -0.099684 36 35 33
-0.050781 0.144531 -0.101959 111 110 108
-0.046875 0.144531 -0.103990 125 124 122
-0.042969 0.144531 -0.106013 74 73 71
-0.039062 0.144531 -0.107849 27 26 24
-0.035156 0.144531 -0.109664 23 22 20
-0.031250 0.144531 -0.111255 1 83 81
-0.027344 0.144531 -0.112583 3 2 106
-0.023438 0.144531 -0.113697 50 49 47
-0.019531 0.144531 -0.114554 101 100 98
-0.015625 0.144531 -0.115241 122 121 119
-0.011719 0.144531 -0.115363 117 116 114
-0.007812 0.144531 -0.115143 108 107 105
-0.003906 0.144531 -0.114723 64 63 61
0.000000 0.144531 -0.114312 48 47 45
0.003906 0.144531 -0.113957 28 27 25
0.007812 0.144531 -0.113646 14 13 11
0.011719 0.144531 -0.113371 9 8 6
0.015625 0.144531 -0.113175 11 10 8
0.019531 0.144531 -0.113186 13 12 10
0.023438 0.144531 -0.113507 14 13 11
0.027344 0.144531 -0.113965 23 22 20
0.031250 0.144531 -0.114629 21 20 18
0.035156 0.144531 -0.115445 19 18 16
0.039062 0.144531 -0.116240 17 15 14
0.042969 0.144531 -0.117272 16 15 13
0.046875 0.144531 -0.118141 45 29 31
0.050781 0.144531 -0.119072 17 15 14
0.074219 0.144531 -0.123365 48 47 45
0.078125 0.144531 -0.123585 27 27 27
0.082031 0.144531 -0.123817 45 44 43
0.085938 0.144531 -0.124222 48 47 45
0.089844 0.144531 -0.124232 88 87 85
0.093750 0.144531 -0.123912 98 97 96
0.097656 0.144531 -0.123266 115 114 112
0.101562 0.144531 -0.122316 131 130 128
0.105469 0.144531 -0.121272 130 129 127
0.109375 0.144531 -0.120255 102 101 99
0.113281 0.144531 -0.119322 52 51 49
0.117188 0.144531 -0.118403 7 6 4
0.121094 0.144531 -0.117439 35 34 32
0.125000 0.144531 -0.116341 9 8 6
0.128906 0.144531 -0.114975 22 21 19
0.132812 0.144531 -0.113350 30 29 27
0.136719 0.144531 -0.111620 9 8 6
0.140625 0.144531 -0.109689 32 31 29
0.144531 0.144531 -0.107491 83 82 80
0.148438 0.144531 -0.104972 96 95 93
0.152344 0.144531 -0.102265 107 106 104
0.156250 0.144531 -0.099417 91 90 88
0.160156 0.144531 -0.096429 88 87 85
0.164062 0.144531 -0.093405 69 68 66
0.167969 0.144531 -0.090294 70 69 67
0.171875 0.144531 -0.087018 19 18 16
0.175781 0.144531 -0.083578 5 4 2
0.179688 0.144531 -0.080022 5 4 2
0.183594 0.144531 -0.076439 21 20 18
0.187500 0.144531 -0.072698 37 36 34
0.191406 0.144531 -0.067776 49 48 46
0.195312 0.144531 -0.060867 37 36 34
0.199219 0.144531 -0.051707 26 25 23
0.203125 0.144531 -0.041154 10 9 7
0.207031 0.144531 -0.039519 31 30 28
0.210938 0.144531 -0.050171 88 87 85
0.214844 0.144531 -0.060415 132 131 129
0.218750 0.144531 -0.067097 49 48 46
0.222656 0.144531 -0.072545 72 71 69
0.226562 0.144531 -0.076797 6 5 3
0.230469 0.144531 -0.080351 47 46 44
0.234375 0.144531 -0.083251 100 99 97
0.238281 0.144531 -0.085137 106 105 103
0.242188 0.144531 -0.086308 60 59 57
0.246094 0.144531 -0.087206 8 7 2
0.250000 0.144531 -0.087816 13 12 7
0.253906 0.144531 -0.087774 51 50 45
0.257812 0.144531 -0.086867 140 139 135
0.261719 0.144531 -0.085963 90 89 85
0.265625 0.144531 -0.084597 23 22 18
0.269531 0.144531 -0.082877 24 23 19
0.273438 0.144531 -0.079135 21 20 18
0.277344 0.144531 -0.077239 42 41 39
0.281250 0.144531 -0.072885 155 154 152
0.285156 0.144531 -0.065571 109 107 108
-0.218750 0.140625 -0.041859 93 93 93
-0.214844 0.140625 -0.050225 8 8 8
-0.210938 0.140625 -0.057538 52 52 52
-0.207031 0.140625 -0.063675 93 93 93
-0.203125 0.140625 -0.068791 7 7 7
-0.199219 0.140625 -0.073096 33 33 33
-0.195312 0.140625 -0.077030 103 103 103
-0.191406 0.140625 -0.080506 17 17 15
-0.187500 0.140625 -0.083558 24 24 22
-0.183594 0.140625 -0.085862 109 109 107
-0.179688 0.140625 -0.087457 25 25 23
-0.175781 0.140625 -0.088873 8 8 6
-0.171875 0.140625 -0.089897 106 106 104
-0.167969 0.140625 -0.090056 43 43 41
-0.164062 0.140625 -0.089403 28 28 26
-0.160156 0.140625 -0.088474 70 70 68
-0.156250 0.140625 -0.087017 50 50 48
-0.152344 0.140625 -0.084977 6 6 4
-0.148438 0.140625 -0.081877 56 56 54
-0.144531 0.140625 -0.078616 53 53 51
-0.140625 0.140625 -0.074869 2 2 7
-0.136719 0.140625 -0.069064 37 37 35
-0.132812 0.140625 -0.061971 55 55 53
-0.128906 0.140625 -0.054528 4 3 1
-0.125000 0.140625 -0.040921 16 15 13
-0.113281 0.140625 -0.015467 5 4 2
-0.109375 0.140625 -0.029823 2 1 4
-0.105469 0.140625 -0.037951 15 14 12
-0.101562 0.140625 -0.048153 30 29 27
-0.097656 0.140625 -0.056132 69 68 66
-0.093750 0.140625 -0.062411 83 82 80
-0.089844 0.140625 -0.068025 55 54 52
-0.085938 0.140625 -0.072951 20 19 17
-0.082031 0.140625 -0.077401 13 12 10
-0.078125 0.140625 -0.081947 10 9 7
-0.074219 0.140625 -0.085607 45 44 42
-0.070312 0.140625 -0.088761 115 114 112
-0.066406 0.140625 -0.091741 109 108 106
-0.062500 0.140625 -0.094562 22 21 19
-0.058594 0.140625 -0.097080 32 31 29
-0.054688 0.140625 -0.099358 20 19 17
-0.050781 0.140625 -0.101639 11 10 8
-0.046875 0.140625 -0.103679 53 52 50
-0.042969 0.140625 -0.105716 131 130 128
-0.039062 0.140625 -0.107575 88 87 85
-0.035156 0.140625 -0.109409 59 58 56
-0.031250 0.140625 -0.111016 39 38 36
-0.027344 0.140625 -0.112373 20 19 17
-0.023438 0.140625 -0.113523 11 10 8
-0.019531 0.140625 -0.114409 12 11 9
-0.015625 0.140625 -0.115115 33 32 30
-0.011719 0.140625 -0.115244 80 79 77
-0.007812 0.140625 -0.115033 126 125 123
-0.003906 0.140625 -0.114640 120 119 117
0.000000 0.140625 -0.114256 111 110 108
0.003906 0.140625 -0.113922 94 93 91
0.007812 0.140625 -0.113633 74 73 71
0.011719 0.140625 -0.113380 56 55 53
0.015625 0.140625 -0.113200 41 40 38
0.019531 0.140625 -0.113228 33 32 30
0.023438 0.140625 -0.113553 29 28 26
0.027344 0.140625 -0.114002 12 11 9
0.031250 0.140625 -0.114652 15 14 12
0.035156 0.140625 -0.115454 21 20 18
0.039062 0.140625 -0.116216 27 25 23
0.042969 0.140625 -0.117232 30 29 27
0.046875 0.140625 -0.118075 46 36 37
0.050781 0.140625 -0.118986 27 25 23
0.074219 0.140625 -0.123119 160 159 158
0.078125 0.140625 -0.123377 57 59 58
0.082031 0.140625 -0.123633 144 143 142
0.085938 0.140625 -0.124066 160 159 158
0.089844 0.140625 -0.124090 106 105 103
0.093750 0.140625 -0.123759 79 78 76
0.097656 0.140625 -0.123097 59 58 56
0.101562 0.140625 -0.122151 46 45 43
0.105469 0.140625 -0.121093 29 28 26
0.109375 0.140625 -0.120032 14 13 11
0.113281 0.140625 -0.119039 19 18 16
0.117188 0.140625 -0.118037 35 34 32
0.121094 0.140625 -0.116981 14 13 11
0.125000 0.140625 -0.115790 33 32 30
0.128906 0.140625 -0.114348 33 32 30
0.132812 0.140625 -0.112640 50 49 47
0.136719 0.140625 -0.110825 105 104 102
0.140625 0.140625 -0.108821 135 134 132
0.144531 0.140625 -0.106539 128 127 125
0.148438 0.140625 -0.103934 123 122 120
0.152344 0.140625 -0.101126 95 94 92
0.156250 0.140625 -0.098181 105 104 102
0.160156 0.140625 -0.095092 116 116 114
0.164062 0.140625 -0.091982 98 97 95
0.167969 0.140625 -0.088806 79 78 76
0.171875 0.140625 -0.085489 29 28 26
0.175781 0.140625 -0.082020 8 7 5
0.179688 0.140625 -0.078454 6 5 3
0.183594 0.140625 -0.074903 10 9 7
0.187500 0.140625 -0.071261 17 16 14
0.191406 0.140625 -0.066489 23 22 20
0.195312 0.140625 -0.060035 1 25 23
0.199219 0.140625 -0.051257 2 1 7
0.203125 0.140625 -0.041839 75 74 72
0.207031 0.140625 -0.042141 113 112 110
0.210938 0.140625 -0.053049 71 70 68
0.214844 0.140625 -0.062805 17 16 14
0.218750 0.140625 -0.068984 26 25 23
0.222656 0.140625 -0.074109 29 28 26
0.226562 0.140625 -0.077984 68 67 65
0.230469 0.140625 -0.081378 113 112 110
0.234375 0.140625 -0.084122 80 79 77
0.238281 0.140625 -0.085900 17 16 14
0.242188 0.140625 -0.087021 5 4 2
0.246094 0.140625 -0.087874 33 32 27
0.250000 0.140625 -0.088437 72 71 66
0.253906 0.140625 -0.088331 113 112 107
0.257812 0.140625 -0.087374 71 70 66
0.261719 0.140625 -0.086449 12 11 7
0.265625 0.140625 -0.085104 29 28 24
0.269531 0.140625 -0.083383 29 28 24
0.273438 0.140625 -0.079638 83 82 80
0.277344 0.140625 -0.077669 122 121 119
0.281250 0.140625 -0.073364 83 82 80
0.285156 0.140625 -0.066136 38 36 37
-0.218750 0.136719 -0.041633 42 42 42
-0.214844 0.136719 -0.050723 72 72 72
-0.210938 0.136719 -0.057837 1 1 1
-0.207031 0.136719 -0.063803 42 42 42
-0.203125 0.136719 -0.068904 82 82 82
-0.199219 0.136719 -0.073154 9 9 9
-0.195312 0.136719 -0.076978 29 29 29
-0.191406 0.136719 -0.080344 93 93 91
-0.187500 0.136719 -0.083291 25 25 23
-0.183594 0.136719 -0.085528 34 34 32
-0.179688 0.136719 -0.087053 103 103 101
-0.175781 0.136719 -0.088362 45 45 43
-0.171875 0.136719 -0.089259 9 9 7
-0.167969 0.136719 -0.089332 77 77 75
-0.164062 0.136719 -0.088627 45 45 43
-0.160156 0.136719 -0.087675 18 18 16
-0.156250 0.136719 -0.086208 59 59 57
-0.152344 0.136719 -0.084135 48 48 46
-0.148438 0.136719 -0.080982 8 8 6
-0.144531 0.136719 -0.077608 37 37 35
-0.140625 0.136719 -0.073591 48 48 46
-0.136719 0.136719 -0.068028 10 10 8
-0.132812 0.136719 -0.060579 25 25 23
-0.128906 0.136719 -0.053098 34 33 31
-0.113281 0.136719 -0.020334 11 10 8
-0.109375 0.136719 -0.030944 11 10 8
-0.105469 0.136719 -0.040031 8 7 5
-0.101562 0.136719 -0.049557 3 2 34
-0.097656 0.136719 -0.057087 31 30 28
-0.093750 0.136719 -0.063195 49 48 46
-0.089844 0.136719 -0.068655 97 96 94
-0.085938 0.136719 -0.073362 99 98 96
-0.082031 0.136719 -0.077629 41 40 38
-0.078125 0.136719 -0.082012 17 16 14
-0.074219 0.136719 -0.085577 28 27 25
-0.070312 0.136719 -0.088692 20 19 17
-0.066406 0.136719 -0.091600 73 72 70
-0.062500 0.136719 -0.094348 128 127 125
-0.058594 0.136719 -0.096816 63 62 60
-0.054688 0.136719 -0.099046 23 22 20
-0.050781 0.136719 -0.101359 22 21 19
-0.046875 0.136719 -0.103461 21 20 18
-0.042969 0.136719 -0.105500 8 7 5
-0.039062 0.136719 -0.107376 98 97 95
-0.035156 0.136719 -0.109178 114 113 111
-0.031250 0.136719 -0.110735 96 95 93
-0.027344 0.136719 -0.112103 66 65 63
-0.023438 0.136719 -0.113263 36 35 33
-0.019531 0.136719 -0.114174 18 17 15
-0.015625 0.136719 -0.114911 12 11 9
-0.011719 0.136719 -0.115071 11 10 8
-0.007812 0.136719 -0.114891 11 10 8
-0.003906 0.136719 -0.114530 53 52 50
0.000000 0.136719 -0.114174 75 74 72
0.003906 0.136719 -0.113854 102 101 99
0.007812 0.136719 -0.113582 116 115 113
0.011719 0.136719 -0.113344 112 111 109
0.015625 0.136719 -0.113174 95 94 92
0.019531 0.136719 -0.113219 79 78 76
0.023438 0.136719 -0.113546 70 69 67
0.027344 0.136719 -0.113983 76 75 73
0.031250 0.136719 -0.114616 66 65 63
0.035156 0.136719 -0.115408 52 51 49
0.039062 0.136719 -0.116147 44 42 40
0.042969 0.136719 -0.117121 47 45 44
0.046875 0.136719 -0.117942 70 55 57
0.050781 0.136719 -0.118854 44 42 40
0.074219 0.136719 -0.122957 47 46 44
0.078125 0.136719 -0.123218 45 47 47
0.082031 0.136719 -0.123465 60 59 57
0.085938 0.136719 -0.123896 47 46 44
0.089844 0.136719 -0.123916 24 23 21
0.093750 0.136719 -0.123559 18 17 15
0.097656 0.136719 -0.122884 17 16 14
0.101562 0.136719 -0.121938 17 16 14
0.105469 0.136719 -0.120860 11 10 8
0.109375 0.136719 -0.119738 6 5 3
0.113281 0.136719 -0.118700 17 16 14
0.117188 0.136719 -0.117652 35 34 32
0.121094 0.136719 -0.116543 40 39 37
0.125000 0.136719 -0.115280 101 100 98
0.128906 0.136719 -0.113763 131 130 128
0.132812 0.136719 -0.111975 132 131 129
0.136719 0.136719 -0.110053 130 129 127
0.140625 0.136719 -0.107949 93 92 90
0.144531 0.136719 -0.105582 46 45 43
0.148438 0.136719 -0.102886 38 37 35
0.152344 0.136719 -0.099961 12 11 9
0.156250 0.136719 -0.096914 41 40 38
0.160156 0.136719 -0.093715 45 44 42
0.164062 0.136719 -0.090507 46 45 43
0.167969 0.136719 -0.087263 31 30 28
0.171875 0.136719 -0.083909 28 27 25
0.175781 0.136719 -0.080404 10 9 7
0.179688 0.136719 -0.076816 12 11 9
0.183594 0.136719 -0.073303 2 1 12
0.187500 0.136719 -0.069733 15 14 12
0.191406 0.136719 -0.065163 8 7 5
0.195312 0.136719 -0.059192 35 34 32
0.199219 0.136719 -0.050862 97 96 94
0.203125 0.136719 -0.042676 98 97 95
0.207031 0.136719 -0.044542 44 43 41
0.210938 0.136719 -0.055382 17 16 14
0.214844 0.136719 -0.064612 9 8 6
0.218750 0.136719 -0.070485 34 33 31
0.222656 0.136719 -0.075401 93 92 90
0.226562 0.136719 -0.079083 100 99 97
0.230469 0.136719 -0.082326 37 36 34
0.234375 0.136719 -0.084968 9 8 6
0.238281 0.136719 -0.086652 31 30 28
0.242188 0.136719 -0.087661 38 37 35
0.246094 0.136719 -0.088409 86 85 80
0.250000 0.136719 -0.088914 125 124 119
0.253906 0.136719 -0.088745 27 26 21
0.257812 0.136719 -0.087758 8 7 3
0.261719 0.136719 -0.086822 44 43 39
0.265625 0.136719 -0.085432 57 56 52
0.269531 0.136719 -0.083708 81 80 76
0.273438 0.136719 -0.080096 127 126 124
0.277344 0.136719 -0.077963 56 55 53
0.281250 0.136719 -0.073374 66 65 63
0.285156 0.136719 -0.065878 22 20 21
-0.218750 0.132812 -0.041403 25 25 31
-0.214844 0.132812 -0.050969 35 35 35
-0.210938 0.132812 -0.057990 93 93 93
-0.207031 0.132812 -0.063907 18 18 18
-0.203125 0.132812 -0.068896 28 28 28
-0.199219 0.132812 -0.073007 100 100 100
-0.195312 0.132812 -0.076758 13 13 13
-0.191406 0.132812 -0.080064 28 28 26
-0.187500 0.132812 -0.082949 104 104 102
-0.183594 0.132812 -0.085114 18 18 16
-0.179688 0.132812 -0.086505 33 33 31
-0.175781 0.132812 -0.087670 95 95 93
-0.171875 0.132812 -0.088479 25 25 23
-0.167969 0.132812 -0.088504 17 17 15
-0.164062 0.132812 -0.087756 76 76 74
-0.160156 0.132812 -0.086769 38 38 36
-0.156250 0.132812 -0.085236 10 10 8
-0.152344 0.132812 -0.083114 61 61 59
-0.148438 0.132812 -0.079984 45 45 43
-0.144531 0.132812 -0.076493 4 4 2
-0.140625 0.132812 -0.072107 44 44 42
-0.136719 0.132812 -0.066381 44 44 42
-0.132812 0.132812 -0.059064 3 3 1
-0.128906 0.132812 -0.050630 30 29 27
-0.113281 0.132812 -0.023338 8 7 5
-0.109375 0.132812 -0.032430 13 12 10
-0.105469 0.132812 -0.041872 23 22 20
-0.101562 0.132812 -0.050926 31 30 28
-0.097656 0.132812 -0.058187 16 15 13
-0.093750 0.132812 -0.064089 3 2 42
-0.089844 0.132812 -0.069334 7 6 4
-0.085938 0.132812 -0.073830 65 64 62
-0.082031 0.132812 -0.077927 112 111 109
-0.078125 0.132812 -0.082173 69 68 66
-0.074219 0.132812 -0.085657 12 11 9
-0.070312 0.132812 -0.088685 14 13 11
-0.066406 0.132812 -0.091513 86 85 83
-0.062500 0.132812 -0.094207 51 50 48
-0.058594 0.132812 -0.096630 120 119 117
-0.054688 0.132812 -0.098854 123 122 120
-0.050781 0.132812 -0.101173 50 49 47
-0.046875 0.132812 -0.103293 17 16 14
-0.042969 0.132812 -0.105331 18 17 15
-0.039062 0.132812 -0.107194 13 12 10
-0.035156 0.132812 -0.108955 47 46 44
-0.031250 0.132812 -0.110477 84 83 81
-0.027344 0.132812 -0.111839 109 108 106
-0.023438 0.132812 -0.113001 98 97 95
-0.019531 0.132812 -0.113919 68 67 65
-0.015625 0.132812 -0.114666 43 42 40
-0.011719 0.132812 -0.114852 23 22 20
-0.007812 0.132812 -0.114702 10 9 7
-0.003906 0.132812 -0.114380 16 15 13
0.000000 0.132812 -0.114062 19 18 16
0.003906 0.132812 -0.113770 23 22 20
0.007812 0.132812 -0.113532 28 27 25
0.011719 0.132812 -0.113332 41 40 38
0.015625 0.132812 -0.113192 66 65 63
0.019531 0.132812 -0.113261 99 98 96
0.023438 0.132812 -0.113594 124 123 121
0.027344 0.132812 -0.114019 123 122 120
0.031250 0.132812 -0.114629 130 129 127
0.035156 0.132812 -0.115406 139 138 136
0.039062 0.132812 -0.116127 146 145 143
0.042969 0.132812 -0.117056 144 142 141
0.046875 0.132812 -0.117870 109 90 92
0.050781 0.132812 -0.118773 146 145 143
0.074219 0.132812 -0.122683 18 17 15
0.078125 0.132812 -0.122892 20 20 20
0.082031 0.132812 -0.123097 18 17 15
0.085938 0.132812 -0.123493 18 17 15
0.089844 0.132812 -0.123484 13 12 10
0.093750 0.132812 -0.123110 21 20 18
0.097656 0.132812 -0.122449 21 20 18
0.101562 0.132812 -0.121512 20 19 17
0.105469 0.132812 -0.120434 43 42 40
0.109375 0.132812 -0.119288 84 83 81
0.113281 0.132812 -0.118225 113 112 110
0.117188 0.132812 -0.117118 119 118 116
0.121094 0.132812 -0.115954 162 161 159
0.125000 0.132812 -0.114626 108 107 105
0.128906 0.132812 -0.113032 67 66 64
0.132812 0.132812 -0.111179 46 45 43
0.136719 0.132812 -0.109159 20 19 17
0.140625 0.132812 -0.106960 8 7 5
0.144531 0.132812 -0.104502 11 10 8
0.148438 0.132812 -0.101727 9 8 6
0.152344 0.132812 -0.098716 29 28 26
0.156250 0.132812 -0.095580 38 37 35
0.160156 0.132812 -0.092294 14 13 11
0.164062 0.132812 -0.089004 16 15 13
0.167969 0.132812 -0.085677 8 7 5
0.171875 0.132812 -0.082261 26 25 23
0.175781 0.132812 -0.078711 7 6 4
0.179688 0.132812 -0.075094 8 7 5
0.183594 0.132812 -0.071638 21 20 18
0.187500 0.132812 -0.068141 7 6 4
0.191406 0.132812 -0.063728 48 47 45
0.195312 0.132812 -0.058180 87 86 84
0.199219 0.132812 -0.050423 56 55 53
0.203125 0.132812 -0.043557 20 19 17
0.207031 0.132812 -0.046767 20 19 17
0.210938 0.132812 -0.057650 24 23 21
0.214844 0.132812 -0.066358 71 70 68
0.218750 0.132812 -0.071891 102 101 99
0.222656 0.132812 -0.076527 72 71 69
0.226562 0.132812 -0.079993 12 11 9
0.230469 0.132812 -0.083094 1 33 31
0.234375 0.132812 -0.085642 26 25 23
0.238281 0.132812 -0.087256 74 73 71
0.242188 0.132812 -0.088212 130 129 127
0.246094 0.132812 -0.088895 70 69 64
0.250000 0.132812 -0.089334 32 31 26
0.253906 0.132812 -0.089124 14 13 8
0.257812 0.132812 -0.088141 26 25 21
0.261719 0.132812 -0.087146 85 84 80
0.265625 0.132812 -0.085637 152 151 147
0.269531 0.132812 -0.083851 77 76 72
0.273438 0.132812 -0.080267 15 14 12
0.277344 0.132812 -0.078013 29 28 26
0.281250 0.132812 -0.073562 14 13 11
0.285156 0.132812 -0.066053 88 86 87
-0.218750 0.128906 -0.041029 37 39 46
-0.214844 0.128906 -0.050987 21 20 20
-0.210938 0.128906 -0.058122 25 25 25
-0.207031 0.128906 -0.063950 71 71 71
-0.203125 0.128906 -0.068781 29 29 29
-0.199219 0.128906 -0.072761 27 27 27
-0.195312 0.128906 -0.076441 85 85 85
-0.191406 0.128906 -0.079683 8 8 6
-0.187500 0.128906 -0.082515 37 37 35
-0.183594 0.128906 -0.084568 94 94 93
-0.179688 0.128906 -0.085790 5 5 3
-0.175781 0.128906 -0.086865 26 26 24
-0.171875 0.128906 -0.087627 100 100 98
-0.167969 0.128906 -0.087574 17 17 15
-0.164062 0.128906 -0.086772 28 28 26
-0.160156 0.128906 -0.085725 68 68 66
-0.156250 0.128906 -0.084088 12 12 10
-0.152344 0.128906 -0.081963 20 20 18
-0.148438 0.128906 -0.078897 78 78 76
-0.144531 0.128906 -0.075240 27 27 25
-0.140625 0.128906 -0.070590 2 2 14
-0.136719 0.128906 -0.064324 59 59 57
-0.132812 0.128906 -0.057503 23 23 21
-0.128906 0.128906 -0.047163 7 6 4
-0.113281 0.128906 -0.025196 4 3 1
-0.109375 0.128906 -0.034320 7 6 4
-0.105469 0.128906 -0.043596 33 32 30
-0.101562 0.128906 -0.052194 62 61 59
-0.097656 0.128906 -0.059215 52 51 49
-0.093750 0.128906 -0.064950 35 34 32
-0.089844 0.128906 -0.070005 17 16 14
-0.085938 0.128906 -0.074307 10 9 7
-0.082031 0.128906 -0.078262 37 36 34
-0.078125 0.128906 -0.082409 94 93 91
-0.074219 0.128906 -0.085797 101 100 98
-0.070312 0.128906 -0.088706 51 50 48
-0.066406 0.128906 -0.091506 26 25 23
-0.062500 0.128906 -0.094179 9 8 6
-0.058594 0.128906 -0.096571 22 21 19
-0.054688 0.128906 -0.098812 64 63 61
-0.050781 0.128906 -0.101077 153 152 150
-0.046875 0.128906 -0.103151 87 86 84
-0.042969 0.128906 -0.105176 31 30 28
-0.039062 0.128906 -0.107005 23 22 20
-0.035156 0.128906 -0.108742 1 65 63
-0.031250 0.128906 -0.110263 22 21 19
-0.027344 0.128906 -0.111604 52 51 49
-0.023438 0.128906 -0.112760 82 81 79
-0.019531 0.128906 -0.113663 109 108 106
-0.015625 0.128906 -0.114385 112 111 109
-0.011719 0.128906 -0.114590 83 82 80
-0.007812 0.128906 -0.114478 46 45 43
-0.003906 0.128906 -0.114196 11 10 8
0.000000 0.128906 -0.113915 15 14 12
0.003906 0.128906 -0.113674 19 18 16
0.007812 0.128906 -0.113485 21 20 18
0.011719 0.128906 -0.113332 20 19 17
0.015625 0.128906 -0.113230 19 18 16
0.019531 0.128906 -0.113320 19 18 16
0.023438 0.128906 -0.113658 20 19 17
0.027344 0.128906 -0.114064 37 36 34
0.031250 0.128906 -0.114647 37 36 34
0.035156 0.128906 -0.115399 36 35 33
0.039062 0.128906 -0.116109 35 33 31
0.042969 0.128906 -0.117014 33 31 30
0.046875 0.128906 -0.117823 42 31 31
0.050781 0.128906 -0.118725 35 33 31
0.074219 0.128906 -0.122358 20 19 17
0.078125 0.128906 -0.122536 26 26 25
0.082031 0.128906 -0.122745 24 23 21
0.085938 0.128906 -0.123124 20 19 17
0.089844 0.128906 -0.123084 24 23 21
0.093750 0.128906 -0.122706 59 58 56
0.097656 0.128906 -0.122042 96 95 93
0.101562 0.128906 -0.121100 118 117 115
0.105469 0.128906 -0.120021 129 128 126
0.109375 0.128906 -0.118853 124 124 122
0.113281 0.128906 -0.117743 94 93 91
0.117188 0.128906 -0.116552 58 57 55
0.121094 0.128906 -0.115303 44 43 41
0.125000 0.128906 -0.113890 21 20 18
0.128906 0.128906 -0.112211 16 15 13
0.132812 0.128906 -0.110277 20 19 17
0.136719 0.128906 -0.108169 12 11 9
0.140625 0.128906 -0.105905 17 16 14
0.144531 0.128906 -0.103371 47 46 44
0.148438 0.128906 -0.100528 74 73 71
0.152344 0.128906 -0.097433 101 100 98
0.156250 0.128906 -0.094200 89 88 86
0.160156 0.128906 -0.090820 65 64 62
0.164062 0.128906 -0.087422 56 55 53
0.167969 0.128906 -0.084007 44 43 41
0.171875 0.128906 -0.080525 23 22 20
0.175781 0.128906 -0.076939 3 2 5
0.179688 0.128906 -0.073330 7 6 4
0.183594 0.128906 -0.069942 14 13 11
0.187500 0.128906 -0.066530 47 46 44
0.191406 0.128906 -0.062230 51 50 48
0.195312 0.128906 -0.057027 26 25 23
0.199219 0.128906 -0.049961 10 9 7
0.203125 0.128906 -0.044369 9 8 6
0.207031 0.128906 -0.048495 40 39 37
0.210938 0.128906 -0.059453 89 88 86
0.214844 0.128906 -0.067733 103 102 100
0.218750 0.128906 -0.073080 39 38 36
0.222656 0.128906 -0.077557 27 27 25
0.226562 0.128906 -0.080821 17 16 14
0.230469 0.128906 -0.083775 71 70 68
0.234375 0.128906 -0.086244 117 116 114
0.238281 0.128906 -0.087785 97 96 94
0.242188 0.128906 -0.088706 34 33 31
0.246094 0.128906 -0.089346 10 9 4
0.250000 0.128906 -0.089699 14 13 8
0.253906 0.128906 -0.089422 58 57 52
0.257812 0.128906 -0.088407 136 135 131
0.261719 0.128906 -0.087329 85 84 80
0.265625 0.128906 -0.085670 30 29 25
0.269531 0.128906 -0.083853 29 28 24
0.273438 0.128906 -0.080247 28 27 25
0.277344 0.128906 -0.077984 33 32 30
0.281250 0.128906 -0.073594 132 131 129
0.285156 0.128906 -0.065676 111 109 110
-0.218750 0.125000 -0.040816 70 75 80
-0.214844 0.125000 -0.050701 79 79 79
-0.210938 0.125000 -0.058096 11 11 11
-0.207031 0.125000 -0.063898 55 55 55
-0.203125 0.125000 -0.068624 84 84 84
-0.199219 0.125000 -0.072533 11 11 11
-0.195312 0.125000 -0.076079 38 38 38
-0.191406 0.125000 -0.079174 94 94 92
-0.187500 0.125000 -0.081930 17 17 15
-0.183594 0.125000 -0.083877 15 15 13
-0.179688 0.125000 -0.084976 119 119 117
-0.175781 0.125000 -0.085973 26 26 24
-0.171875 0.125000 -0.086631 58 58 56
-0.167969 0.125000 -0.086464 120 120 118
-0.164062 0.125000 -0.085629 15 15 13
-0.160156 0.125000 -0.084546 17 17 15
-0.156250 0.125000 -0.082810 81 81 79
-0.152344 0.125000 -0.080669 12 12 10
-0.148438 0.125000 -0.077618 14 14 12
-0.144531 0.125000 -0.073768 73 73 71
-0.140625 0.125000 -0.068955 19 19 17
-0.136719 0.125000 -0.062353 30 30 28
-0.132812 0.125000 -0.054822 45 45 43
-0.113281 0.125000 -0.026693 9 8 6
-0.109375 0.125000 -0.036070 6 5 3
-0.105469 0.125000 -0.045214 18 17 15
-0.101562 0.125000 -0.053497 37 36 34
-0.097656 0.125000 -0.060257 83 82 80
-0.093750 0.125000 -0.065840 82 81 79
-0.089844 0.125000 -0.070743 62 61 59
-0.085938 0.125000 -0.074861 32 31 29
-0.082031 0.125000 -0.078669 12 11 9
-0.078125 0.125000 -0.082694 19 18 16
-0.074219 0.125000 -0.085991 60 59 57
-0.070312 0.125000 -0.088843 106 105 103
-0.066406 0.125000 -0.091623 87 86 84
-0.062500 0.125000 -0.094259 35 34 32
-0.058594 0.125000 -0.096624 2 1 19
-0.054688 0.125000 -0.098854 23 22 20
-0.050781 0.125000 -0.101081 38 37 35
-0.046875 0.125000 -0.103136 110 109 107
-0.042969 0.125000 -0.105122 117 116 114
-0.039062 0.125000 -0.106910 71 70 68
-0.035156 0.125000 -0.108610 34 33 31
-0.031250 0.125000 -0.110091 22 21 19
-0.027344 0.125000 -0.111404 11 10 8
-0.023438 0.125000 -0.112545 17 16 14
-0.019531 0.125000 -0.113435 45 44 42
-0.015625 0.125000 -0.114151 79 78 76
-0.011719 0.125000 -0.114379 103 102 100
-0.007812 0.125000 -0.114302 110 109 108
-0.003906 0.125000 -0.114060 92 91 89
0.000000 0.125000 -0.113821 72 71 69
0.003906 0.125000 -0.113620 45 44 42
0.007812 0.125000 -0.113471 23 22 20
0.011719 0.125000 -0.113345 14 13 11
0.015625 0.125000 -0.113259 14 13 11
0.019531 0.125000 -0.113359 17 16 14
0.023438 0.125000 -0.113692 19 18 16
0.027344 0.125000 -0.114074 13 12 10
0.031250 0.125000 -0.114616 14 13 11
0.035156 0.125000 -0.115328 15 14 12
0.039062 0.125000 -0.116020 18 16 15
0.042969 0.125000 -0.116893 18 17 15
0.046875 0.125000 -0.117663 26 19 19
0.050781 0.125000 -0.118556 18 16 15
0.074219 0.125000 -0.121904 123 122 120
0.078125 0.125000 -0.122042 32 31 32
0.082031 0.125000 -0.122245 85 84 82
0.085938 0.125000 -0.122638 123 122 120
0.089844 0.125000 -0.122571 129 128 126
0.093750 0.125000 -0.122174 114 114 112
0.097656 0.125000 -0.121477 105 104 102
0.101562 0.125000 -0.120507 87 86 84
0.105469 0.125000 -0.119397 57 56 54
0.109375 0.125000 -0.118188 30 29 27
0.113281 0.125000 -0.117041 21 20 18
0.117188 0.125000 -0.115804 24 23 21
0.121094 0.125000 -0.114497 10 9 7
0.125000 0.125000 -0.113021 33 32 30
0.128906 0.125000 -0.111285 12 11 9
0.132812 0.125000 -0.109286 15 14 12
0.136719 0.125000 -0.107130 77 76 74
0.140625 0.125000 -0.104826 110 109 107
0.144531 0.125000 -0.102223 120 119 117
0.148438 0.125000 -0.099314 157 156 154
0.152344 0.125000 -0.096116 104 103 101
0.156250 0.125000 -0.092767 93 92 90
0.160156 0.125000 -0.089274 102 101 99
0.164062 0.125000 -0.085761 94 93 91
0.167969 0.125000 -0.082270 82 81 79
0.171875 0.125000 -0.078725 17 16 14
0.175781 0.125000 -0.075102 3 2 7
0.179688 0.125000 -0.071467 18 17 15
0.183594 0.125000 -0.068099 15 14 12
0.187500 0.125000 -0.064728 20 19 17
0.191406 0.125000 -0.060554 12 11 9
0.195312 0.125000 -0.055792 1 21 19
0.199219 0.125000 -0.049456 27 26 24
0.203125 0.125000 -0.044998 81 80 78
0.207031 0.125000 -0.050065 97 96 94
0.210938 0.125000 -0.061007 70 69 67
0.214844 0.125000 -0.068865 10 9 7
0.218750 0.125000 -0.074067 10 9 7
0.222656 0.125000 -0.078368 35 34 32
0.226562 0.125000 -0.081497 82 81 79
0.230469 0.125000 -0.084354 97 96 94
0.234375 0.125000 -0.086759 58 57 55
0.238281 0.125000 -0.088237 20 19 17
0.242188 0.125000 -0.089096 15 14 12
0.246094 0.125000 -0.089673 28 27 22
0.250000 0.125000 -0.089950 121 120 115
0.253906 0.125000 -0.089595 107 106 101
0.257812 0.125000 -0.088495 52 51 47
0.261719 0.125000 -0.087335 32 31 27
0.265625 0.125000 -0.085570 22 21 17
0.269531 0.125000 -0.083741 16 15 11
0.273438 0.125000 -0.080085 101 100 98
0.277344 0.125000 -0.077718 146 145 143
0.281250 0.125000 -0.073225 66 65 63
0.285156 0.125000 -0.065135 22 20 21
-0.218750 0.121094 -0.040219 25 25 31
-0.214844 0.121094 -0.050392 55 55 55
-0.210938 0.121094 -0.057997 98 98 98
-0.207031 0.121094 -0.063823 13 13 13
-0.203125 0.121094 -0.068433 32 32 32
-0.199219 0.121094 -0.072226 115 115 115
-0.195312 0.121094 -0.075567 14 14 14
-0.191406 0.121094 -0.078545 39 39 37
-0.187500 0.121094 -0.081250 86 86 84
-0.183594 0.121094 -0.083096 24 24 22
-0.179688 0.121094 -0.084105 40 40 38
-0.175781 0.121094 -0.084986 101 101 99
-0.171875 0.121094 -0.085485 28 28 26
-0.167969 0.121094 -0.085243 10 10 8
-0.164062 0.121094 -0.084400 111 111 109
-0.160156 0.121094 -0.083273 19 19 17
-0.156250 0.121094 -0.081463 8 8 6
-0.152344 0.121094 -0.079280 85 85 83
-0.148438 0.121094 -0.076211 23 23 21
-0.144531 0.121094 -0.072187 5 5 3
-0.140625 0.121094 -0.067170 68 68 66
-0.136719 0.121094 -0.060292 11 11 9
-0.132812 0.121094 -0.051518 3 3 1
-0.113281 0.121094 -0.028007 17 16 14
-0.109375 0.121094 -0.037787 4 3 1
-0.105469 0.121094 -0.046659 31 30 28
-0.101562 0.121094 -0.054715 14 13 11
-0.097656 0.121094 -0.061279 13 12 10
-0.093750 0.121094 -0.066728 45 44 42
-0.089844 0.121094 -0.071488 71 70 68
-0.085938 0.121094 -0.075489 103 102 100
-0.082031 0.121094 -0.079183 52 51 49
-0.078125 0.121094 -0.083075 18 17 15
-0.074219 0.121094 -0.086318 2 1 46
-0.070312 0.121094 -0.089162 41 40 38
-0.066406 0.121094 -0.091887 86 85 83
-0.062500 0.121094 -0.094467 128 127 125
-0.058594 0.121094 -0.096811 33 32 30
-0.054688 0.121094 -0.099015 27 26 24
-0.050781 0.121094 -0.101252 22 21 19
-0.046875 0.121094 -0.103342 142 141 139
-0.042969 0.121094 -0.105267 57 56 54
-0.039062 0.121094 -0.106983 139 138 136
-0.035156 0.121094 -0.108601 102 101 99
-0.031250 0.121094 -0.109991 58 57 55
-0.027344 0.121094 -0.111277 26 25 23
-0.023438 0.121094 -0.112410 20 19 17
-0.019531 0.121094 -0.113303 10 9 7
-0.015625 0.121094 -0.114038 34 33 31
-0.011719 0.121094 -0.114284 22 21 19
-0.007812 0.121094 -0.114222 58 57 55
-0.003906 0.121094 -0.114015 98 97 95
0.000000 0.121094 -0.113815 102 101 99
0.003906 0.121094 -0.113645 105 104 102
0.007812 0.121094 -0.113536 100 99 97
0.011719 0.121094 -0.113430 88 87 85
0.015625 0.121094 -0.113353 73 72 70
0.019531 0.121094 -0.113463 62 61 59
0.023438 0.121094 -0.113788 57 56 54
0.027344 0.121094 -0.114143 47 46 44
0.031250 0.121094 -0.114641 47 46 44
0.035156 0.121094 -0.115313 46 45 43
0.039062 0.121094 -0.115986 47 46 44
0.042969 0.121094 -0.116821 50 48 46
0.046875 0.121094 -0.117545 55 47 47
0.050781 0.121094 -0.118411 47 46 44
0.074219 0.121094 -0.121524 76 75 73
0.078125 0.121094 -0.121621 72 73 74
0.082031 0.121094 -0.121794 97 96 94
0.085938 0.121094 -0.122157 76 75 73
0.089844 0.121094 -0.122054 58 57 55
0.093750 0.121094 -0.121622 40 40 38
0.097656 0.121094 -0.120880 21 20 18
0.101562 0.121094 -0.119866 16 15 13
0.105469 0.121094 -0.118713 24 23 21
0.109375 0.121094 -0.117439 21 20 18
0.113281 0.121094 -0.116249 16 15 13
0.117188 0.121094 -0.114971 22 21 19
0.121094 0.121094 -0.113617 33 32 30
0.125000 0.121094 -0.112094 50 49 47
0.128906 0.121094 -0.110303 101 100 98
0.132812 0.121094 -0.108244 148 147 145
0.136719 0.121094 -0.106024 147 146 144
0.140625 0.121094 -0.103660 112 111 109
0.144531 0.121094 -0.100983 73 72 70
0.148438 0.121094 -0.098007 45 44 42
0.152344 0.121094 -0.094737 23 22 20
0.156250 0.121094 -0.091305 36 35 33
0.160156 0.121094 -0.087742 47 46 44
0.164062 0.121094 -0.084171 60 59 57
0.167969 0.121094 -0.080633 28 27 25
0.171875 0.121094 -0.077046 36 35 33
0.175781 0.121094 -0.073393 23 22 20
0.179688 0.121094 -0.069718 6 5 3
0.183594 0.121094 -0.066370 13 13 11
0.187500 0.121094 -0.063067 9 9 7
0.191406 0.121094 -0.058969 1 1 8
0.195312 0.121094 -0.054590 45 45 43
0.199219 0.121094 -0.048824 104 104 102
0.203125 0.121094 -0.045264 79 79 77
0.207031 0.121094 -0.051156 19 19 17
0.210938 0.121094 -0.062147 11 11 9
0.214844 0.121094 -0.069777 10 10 8
0.218750 0.121094 -0.074883 52 52 50
0.222656 0.121094 -0.079078 91 91 89
0.226562 0.121094 -0.082074 92 92 90
0.230469 0.121094 -0.084812 33 33 31
0.234375 0.121094 -0.087178 10 10 8
0.238281 0.121094 -0.088625 17 17 15
0.242188 0.121094 -0.089398 65 65 63
0.246094 0.121094 -0.089883 119 119 117
0.250000 0.121094 -0.090088 77 77 75
0.253906 0.121094 -0.089657 41 41 39
0.257812 0.121094 -0.088484 21 21 19
0.261719 0.121094 -0.087256 29 29 27
0.265625 0.121094 -0.085380 55 55 53
0.269531 0.121094 -0.083428 128 128 126
0.273438 0.121094 -0.079565 87 87 85
0.277344 0.121094 -0.077078 43 43 41
0.281250 0.121094 -0.072527 21 21 19
0.285156 0.121094 -0.064158 27 27 25
-0.218750 0.117188 -0.037778 37 39 46
-0.214844 0.117188 -0.049978 40 39 40
-0.210938 0.117188 -0.057640 68 67 67
-0.207031 0.117188 -0.063591 62 62 62
-0.203125 0.117188 -0.068128 33 32 33
-0.199219 0.117188 -0.071743 32 32 32
-0.195312 0.117188 -0.074947 88 88 88
-0.191406 0.117188 -0.077865 25 25 23
-0.187500 0.117188 -0.080476 55 55 53
-0.183594 0.117188 -0.082176 90 90 88
-0.179688 0.117188 -0.083078 13 13 11
-0.175781 0.117188 -0.083866 48 48 46
-0.171875 0.117188 -0.084269 98 98 96
-0.167969 0.117188 -0.083966 8 8 6
-0.164062 0.117188 -0.083060 33 33 31
-0.160156 0.117188 -0.081854 90 90 88
-0.156250 0.117188 -0.079973 16 16 14
-0.152344 0.117188 -0.077734 30 30 28
-0.148438 0.117188 -0.074642 61 61 59
-0.144531 0.117188 -0.070465 11 11 9
-0.140625 0.117188 -0.065190 16 16 14
-0.136719 0.117188 -0.057854 54 54 52
-0.132812 0.117188 -0.049448 6 6 4
-0.113281 0.117188 -0.029518 8 7 5
-0.109375 0.117188 -0.039502 18 17 15
-0.105469 0.117188 -0.048033 38 37 35
-0.101562 0.117188 -0.055862 37 36 34
-0.097656 0.117188 -0.062260 18 17 15
-0.093750 0.117188 -0.067602 6 5 3
-0.089844 0.117188 -0.072225 29 28 26
-0.085938 0.117188 -0.076157 31 30 28
-0.082031 0.117188 -0.079776 119 118 116
-0.078125 0.117188 -0.083580 69 68 66
-0.074219 0.117188 -0.086787 38 37 35
-0.070312 0.117188 -0.089587 4 3 1
-0.066406 0.117188 -0.092263 15 14 12
-0.062500 0.117188 -0.094820 57 56 54
-0.058594 0.117188 -0.097148 109 108 106
-0.054688 0.117188 -0.099343 79 78 76
-0.050781 0.117188 -0.101581 55 54 52
-0.046875 0.117188 -0.103670 22 21 19
-0.042969 0.117188 -0.105553 20 19 17
-0.039062 0.117188 -0.107192 18 17 15
-0.035156 0.117188 -0.108726 66 65 63
-0.031250 0.117188 -0.110047 134 133 131
-0.027344 0.117188 -0.111293 86 85 83
