ply
    format ascii 1.0
    element vertex 19216
    property float x
    property float y
    property float z
    property uchar red
    property uchar green
    property uchar blue
    end_header
-0.136719 0.140625 0.101143 165 165 165
-0.132812 0.140625 0.107449 153 152 153
-0.128906 0.140625 0.113357 145 144 144
-0.125000 0.140625 0.119265 139 138 138
-0.121094 0.140625 0.124840 133 133 133
-0.117188 0.140625 0.130413 131 130 130
-0.113281 0.140625 0.135727 132 132 132
-0.109375 0.140625 0.140779 138 138 138
-0.105469 0.140625 0.145194 145 145 145
-0.101562 0.140625 0.148783 149 148 148
-0.097656 0.140625 0.151675 151 151 151
-0.093750 0.140625 0.153861 155 154 155
-0.089844 0.140625 0.155516 158 158 158
-0.085938 0.140625 0.156589 159 159 159
-0.082031 0.140625 0.157268 161 161 161
-0.078125 0.140625 0.157400 163 163 163
-0.074219 0.140625 0.156783 167 167 167
-0.070312 0.140625 0.155583 174 174 174
-0.066406 0.140625 0.153873 181 181 181
-0.062500 0.140625 0.151874 185 185 185
-0.058594 0.140625 0.149783 187 187 187
-0.054688 0.140625 0.147622 187 187 187
-0.050781 0.140625 0.145269 185 185 185
-0.046875 0.140625 0.142631 182 182 182
-0.042969 0.140625 0.139917 178 178 178
-0.039062 0.140625 0.137077 174 174 174
-0.035156 0.140625 0.134092 171 171 171
-0.031250 0.140625 0.130969 170 170 170
-0.027344 0.140625 0.127536 171 171 171
-0.023438 0.140625 0.123969 172 172 172
-0.019531 0.140625 0.120338 171 171 171
-0.015625 0.140625 0.116762 170 170 170
-0.011719 0.140625 0.112979 165 165 165
-0.007812 0.140625 0.108166 155 155 155
-0.003906 0.140625 0.103494 135 135 135
0.000000 0.140625 0.098711 107 107 107
0.003906 0.140625 0.093680 88 88 88
0.007812 0.140625 0.086974 88 88 88
0.011719 0.140625 0.079223 113 112 113
0.015625 0.140625 0.071961 170 163 165
0.019531 0.140625 0.060157 166 149 152
0.023438 0.140625 0.030501 13 15 11
0.027344 0.140625 0.000908 0 0 0
0.199219 0.140625 0.133807 125 68 54
0.203125 0.140625 0.135644 193 148 145
0.207031 0.140625 0.138989 215 180 167
0.210938 0.140625 0.140799 206 165 142
0.214844 0.140625 0.137211 183 134 112
0.218750 0.140625 0.135731 190 134 119
0.222656 0.140625 0.135216 201 147 136
0.226562 0.140625 0.133287 210 176 163
0.230469 0.140625 0.129644 217 211 204
-0.371094 0.136719 -0.024634 237 228 215
-0.367188 0.136719 0.004183 220 187 158
-0.363281 0.136719 0.045778 223 180 149
-0.359375 0.136719 0.041740 208 158 128
-0.355469 0.136719 0.038043 183 131 98
-0.351562 0.136719 0.031460 185 134 98
-0.347656 0.136719 0.025148 191 137 107
-0.343750 0.136719 0.020273 205 158 132
-0.339844 0.136719 0.014389 220 189 174
-0.335938 0.136719 0.009814 218 207 190
-0.167969 0.136719 0.000664 114 117 144
-0.164062 0.136719 0.033497 189 183 194
-0.160156 0.136719 0.049437 183 179 182
-0.156250 0.136719 0.060930 180 177 178
-0.152344 0.136719 0.070017 193 191 192
-0.148438 0.136719 0.077660 198 197 198
-0.144531 0.136719 0.085819 192 192 192
-0.140625 0.136719 0.093958 182 182 182
-0.136719 0.136719 0.101690 170 169 170
-0.132812 0.136719 0.108023 158 158 158
-0.128906 0.136719 0.113993 151 150 150
-0.125000 0.136719 0.119934 145 145 145
-0.121094 0.136719 0.125490 141 141 141
-0.117188 0.136719 0.131018 141 140 140
-0.113281 0.136719 0.136317 143 142 143
-0.109375 0.136719 0.141272 148 147 148
-0.105469 0.136719 0.145758 153 152 152
-0.101562 0.136719 0.149374 153 153 153
-0.097656 0.136719 0.152257 153 153 153
-0.093750 0.136719 0.154441 154 154 154
-0.089844 0.136719 0.156083 156 156 156
-0.085938 0.136719 0.157163 159 159 159
-0.082031 0.136719 0.157833 162 162 162
-0.078125 0.136719 0.157933 166 166 166
-0.074219 0.136719 0.157256 170 170 170
-0.070312 0.136719 0.155986 175 175 175
-0.066406 0.136719 0.154186 179 179 179
-0.062500 0.136719 0.152101 183 183 183
-0.058594 0.136719 0.149904 184 184 184
-0.054688 0.136719 0.147653 184 184 184
-0.050781 0.136719 0.145213 183 183 183
-0.046875 0.136719 0.142494 181 181 181
-0.042969 0.136719 0.139731 177 177 177
-0.039062 0.136719 0.136816 173 173 173
-0.035156 0.136719 0.133756 171 171 171
-0.031250 0.136719 0.130562 170 170 170
-0.027344 0.136719 0.127064 171 171 171
-0.023438 0.136719 0.123434 173 173 173
-0.019531 0.136719 0.119749 173 173 173
-0.015625 0.136719 0.116166 173 173 173
-0.011719 0.136719 0.112385 170 170 170
-0.007812 0.136719 0.107624 161 161 161
-0.003906 0.136719 0.103004 143 143 143
0.000000 0.136719 0.098210 115 115 115
0.003906 0.136719 0.093201 97 97 97
0.007812 0.136719 0.086566 100 100 100
0.011719 0.136719 0.079036 131 130 131
0.015625 0.136719 0.072060 195 189 190
0.019531 0.136719 0.060863 219 205 209
0.023438 0.136719 0.031084 79 75 70
0.027344 0.136719 -0.003870 0 1 0
0.203125 0.136719 0.132953 85 46 51
0.207031 0.136719 0.136896 228 212 194
0.210938 0.136719 0.132545 223 199 183
0.214844 0.136719 0.125837 182 136 125
0.218750 0.136719 0.121855 160 107 96
0.222656 0.136719 0.119695 178 119 106
0.226562 0.136719 0.119265 186 142 128
0.230469 0.136719 0.121338 185 174 171
-0.375000 0.132812 -0.024636 235 226 222
-0.371094 0.132812 -0.024756 220 194 171
-0.367188 0.132812 0.001213 210 170 135
-0.363281 0.132812 0.039878 213 168 137
-0.359375 0.132812 0.035672 199 146 119
-0.355469 0.132812 0.030404 182 135 100
-0.351562 0.132812 0.024232 188 146 109
-0.347656 0.132812 0.016722 198 147 125
-0.343750 0.132812 0.005872 204 173 154
-0.167969 0.132812 0.017237 112 113 141
-0.164062 0.132812 0.036760 194 188 199
-0.160156 0.132812 0.052123 189 185 188
-0.156250 0.132812 0.062108 185 181 183
-0.152344 0.132812 0.071471 196 194 195
-0.148438 0.132812 0.078698 201 200 200
-0.144531 0.132812 0.086687 195 195 195
-0.140625 0.132812 0.094756 186 185 185
-0.136719 0.132812 0.102418 174 174 174
-0.132812 0.132812 0.108768 164 164 164
-0.128906 0.132812 0.114767 158 157 157
-0.125000 0.132812 0.120768 154 153 153
-0.121094 0.132812 0.126332 152 152 152
-0.117188 0.132812 0.131810 152 152 152
-0.113281 0.132812 0.137053 154 154 154
-0.109375 0.132812 0.141875 158 158 158
-0.105469 0.132812 0.146239 161 161 161
-0.101562 0.132812 0.149839 160 160 160
-0.097656 0.132812 0.152668 158 158 158
-0.093750 0.132812 0.154813 157 156 156
-0.089844 0.132812 0.156411 158 158 158
-0.085938 0.132812 0.157475 161 161 161
-0.082031 0.132812 0.158116 164 164 164
-0.078125 0.132812 0.158173 168 168 168
-0.074219 0.132812 0.157441 172 172 172
-0.070312 0.132812 0.156122 176 176 176
-0.066406 0.132812 0.154260 179 179 179
-0.062500 0.132812 0.152120 182 182 182
-0.058594 0.132812 0.149850 182 182 182
-0.054688 0.132812 0.147533 182 182 182
-0.050781 0.132812 0.145043 181 181 181
-0.046875 0.132812 0.142281 179 179 179
-0.042969 0.132812 0.139480 176 176 176
-0.039062 0.132812 0.136506 172 172 172
-0.035156 0.132812 0.133396 170 170 170
-0.031250 0.132812 0.130155 169 169 169
-0.027344 0.132812 0.126617 171 171 171
-0.023438 0.132812 0.122944 173 173 173
-0.019531 0.132812 0.119223 174 174 174
-0.015625 0.132812 0.115638 176 176 176
-0.011719 0.132812 0.111869 174 174 174
-0.007812 0.132812 0.107177 167 167 167
-0.003906 0.132812 0.102632 151 151 151
0.000000 0.132812 0.097884 127 127 127
0.003906 0.132812 0.092915 113 113 113
0.007812 0.132812 0.086309 122 121 121
0.011719 0.132812 0.078953 156 155 155
0.015625 0.132812 0.072237 212 205 206
0.019531 0.132812 0.061581 233 220 224
0.023438 0.132812 0.030825 149 133 130
0.027344 0.132812 -0.009086 2 5 1
0.207031 0.132812 0.127178 115 72 60
0.210938 0.132812 0.123447 201 178 173
0.214844 0.132812 0.120907 201 168 162
0.218750 0.132812 0.112269 185 147 129
0.222656 0.132812 0.105951 163 118 102
0.226562 0.132812 0.103493 169 123 115
0.230469 0.132812 0.112147 216 199 194
0.234375 0.132812 0.113939 211 199 210
-0.371094 0.128906 -0.022257 205 169 134
-0.367188 0.128906 0.000484 198 158 122
-0.363281 0.128906 0.034235 207 167 143
-0.359375 0.128906 0.030971 220 184 159
-0.355469 0.128906 0.021737 220 196 158
-0.351562 0.128906 0.012377 236 224 199
-0.347656 0.128906 -0.002770 241 229 219
-0.167969 0.128906 0.027544 114 112 139
-0.164062 0.128906 0.039780 193 188 196
-0.160156 0.128906 0.054544 192 189 191
-0.156250 0.128906 0.064009 192 189 190
-0.152344 0.128906 0.073149 201 199 200
-0.148438 0.128906 0.079853 204 204 204
-0.144531 0.128906 0.087567 199 198 198
-0.140625 0.128906 0.095570 189 189 189
-0.136719 0.128906 0.103173 179 178 178
-0.132812 0.128906 0.109526 170 169 169
-0.128906 0.128906 0.115502 164 164 164
-0.125000 0.128906 0.121511 162 161 162
-0.121094 0.128906 0.127035 161 161 161
-0.117188 0.128906 0.132416 162 162 162
-0.113281 0.128906 0.137558 164 164 164
-0.109375 0.128906 0.142258 167 167 167
-0.105469 0.128906 0.146477 169 169 169
-0.101562 0.128906 0.150040 169 169 169
-0.097656 0.128906 0.152862 167 167 167
-0.093750 0.128906 0.154980 165 165 165
-0.089844 0.128906 0.156549 165 165 165
-0.085938 0.128906 0.157607 168 168 168
-0.082031 0.128906 0.158230 171 171 171
-0.078125 0.128906 0.158256 173 173 173
-0.074219 0.128906 0.157490 176 176 176
-0.070312 0.128906 0.156131 178 178 178
-0.066406 0.128906 0.154225 180 180 180
-0.062500 0.128906 0.152025 182 182 182
-0.058594 0.128906 0.149680 181 181 181
-0.054688 0.128906 0.147303 181 181 181
-0.050781 0.128906 0.144768 180 180 180
-0.046875 0.128906 0.141981 178 178 178
-0.042969 0.128906 0.139151 175 175 175
-0.039062 0.128906 0.136138 172 172 172
-0.035156 0.128906 0.132999 170 170 170
-0.031250 0.128906 0.129732 169 169 169
-0.027344 0.128906 0.126178 171 171 171
-0.023438 0.128906 0.122482 173 173 173
-0.019531 0.128906 0.118739 175 175 175
-0.015625 0.128906 0.115157 177 177 177
-0.011719 0.128906 0.111415 178 178 178
-0.007812 0.128906 0.106804 172 172 172
-0.003906 0.128906 0.102324 159 159 159
0.000000 0.128906 0.097609 138 138 138
0.003906 0.128906 0.092686 126 126 126
0.007812 0.128906 0.086119 137 137 137
0.011719 0.128906 0.078950 170 168 169
0.015625 0.128906 0.072562 216 210 211
0.019531 0.128906 0.062406 232 222 224
0.023438 0.128906 0.029624 158 136 139
0.027344 0.128906 -0.014406 3 4 1
0.214844 0.128906 0.117936 172 144 139
0.218750 0.128906 0.111347 220 200 194
0.222656 0.128906 0.096564 197 164 159
0.226562 0.128906 0.091818 163 122 121
0.230469 0.128906 0.096860 209 190 185
0.234375 0.128906 0.075940 210 197 201
-0.375000 0.125000 -0.023131 219 186 159
-0.371094 0.125000 -0.015000 191 147 110
-0.367188 0.125000 0.007880 200 170 136
-0.363281 0.125000 0.030886 222 198 182
-0.359375 0.125000 0.025243 226 199 181
-0.355469 0.125000 0.010243 201 176 144
-0.351562 0.125000 -0.003346 229 222 203
-0.167969 0.125000 0.034213 203 200 212
-0.164062 0.125000 0.042704 214 209 215
-0.160156 0.125000 0.056365 205 202 204
-0.156250 0.125000 0.065863 204 201 202
-0.152344 0.125000 0.074390 209 207 208
-0.148438 0.125000 0.080990 210 209 209
-0.144531 0.125000 0.088481 203 202 203
-0.140625 0.125000 0.096407 193 193 193
-0.136719 0.125000 0.103938 184 183 183
-0.132812 0.125000 0.110268 176 176 176
-0.128906 0.125000 0.116202 172 172 172
-0.125000 0.125000 0.122185 170 170 170
-0.121094 0.125000 0.127681 171 170 170
-0.117188 0.125000 0.132980 172 172 172
-0.113281 0.125000 0.138044 174 174 174
-0.109375 0.125000 0.142653 177 176 176
-0.105469 0.125000 0.146751 178 178 178
-0.101562 0.125000 0.150181 179 179 179
-0.097656 0.125000 0.152982 178 178 178
-0.093750 0.125000 0.155019 177 177 177
-0.089844 0.125000 0.156521 178 178 178
-0.085938 0.125000 0.157556 179 179 179
-0.082031 0.125000 0.158156 181 181 181
-0.078125 0.125000 0.158155 181 181 181
-0.074219 0.125000 0.157369 182 182 182
-0.070312 0.125000 0.155990 183 183 183
-0.066406 0.125000 0.154068 183 183 183
-0.062500 0.125000 0.151836 183 183 183
-0.058594 0.125000 0.149454 182 182 182
-0.054688 0.125000 0.147056 180 180 180
-0.050781 0.125000 0.144508 179 179 179
-0.046875 0.125000 0.141727 177 177 177
-0.042969 0.125000 0.138890 175 175 175
-0.039062 0.125000 0.135851 173 173 173
-0.035156 0.125000 0.132688 172 172 172
-0.031250 0.125000 0.129398 171 171 171
-0.027344 0.125000 0.125823 172 172 172
-0.023438 0.125000 0.122093 174 174 174
-0.019531 0.125000 0.118319 176 176 176
-0.015625 0.125000 0.114719 179 179 179
-0.011719 0.125000 0.110976 180 180 180
-0.007812 0.125000 0.106470 177 177 177
-0.003906 0.125000 0.102085 164 164 164
0.000000 0.125000 0.097460 144 144 144
0.003906 0.125000 0.092652 131 131 131
0.007812 0.125000 0.086198 141 141 141
0.011719 0.125000 0.079080 171 170 171
0.015625 0.125000 0.072717 213 210 210
0.019531 0.125000 0.063141 227 220 221
0.023438 0.125000 0.028962 138 123 126
0.027344 0.125000 -0.020574 2 1 0
0.218750 0.125000 0.113213 163 134 152
0.222656 0.125000 0.095703 219 191 193
0.226562 0.125000 0.080628 194 153 152
0.230469 0.125000 0.059078 178 158 159
-0.378906 0.121094 -0.019003 245 232 218
-0.375000 0.121094 -0.009281 207 159 129
-0.371094 0.121094 0.000113 214 171 137
-0.367188 0.121094 0.018024 238 223 203
-0.363281 0.121094 0.027098 240 227 215
-0.359375 0.121094 0.017958 172 127 121
-0.167969 0.121094 0.037466 218 212 221
-0.164062 0.121094 0.046237 215 211 214
-0.160156 0.121094 0.058229 209 206 208
-0.156250 0.121094 0.067788 210 208 209
-0.152344 0.121094 0.075539 213 212 212
-0.148438 0.121094 0.082084 213 213 213
-0.144531 0.121094 0.089362 206 206 206
-0.140625 0.121094 0.097258 197 197 197
-0.136719 0.121094 0.104724 189 189 189
-0.132812 0.121094 0.110988 183 182 182
-0.128906 0.121094 0.116819 179 179 179
-0.125000 0.121094 0.122670 179 178 179
-0.121094 0.121094 0.128065 180 179 179
-0.117188 0.121094 0.133245 181 181 181
-0.113281 0.121094 0.138172 183 183 183
-0.109375 0.121094 0.142658 186 186 186
-0.105469 0.121094 0.146607 187 187 187
-0.101562 0.121094 0.149868 188 188 188
-0.097656 0.121094 0.152654 188 188 188
-0.093750 0.121094 0.154636 187 187 187
-0.089844 0.121094 0.156099 187 187 187
-0.085938 0.121094 0.157139 188 188 188
-0.082031 0.121094 0.157745 188 188 188
-0.078125 0.121094 0.157749 188 188 188
-0.074219 0.121094 0.156982 187 187 187
-0.070312 0.121094 0.155627 186 186 186
-0.066406 0.121094 0.153751 185 185 185
-0.062500 0.121094 0.151542 183 183 183
-0.058594 0.121094 0.149171 181 181 181
-0.054688 0.121094 0.146784 180 180 180
-0.050781 0.121094 0.144240 178 178 178
-0.046875 0.121094 0.141471 176 176 176
-0.042969 0.121094 0.138629 174 174 174
-0.039062 0.121094 0.135566 173 173 173
-0.035156 0.121094 0.132382 172 172 172
-0.031250 0.121094 0.129075 172 172 172
-0.027344 0.121094 0.125486 173 173 173
-0.023438 0.121094 0.121727 175 175 175
-0.019531 0.121094 0.117926 178 178 178
-0.015625 0.121094 0.114294 181 181 181
-0.011719 0.121094 0.110498 182 182 182
-0.007812 0.121094 0.106109 179 179 179
-0.003906 0.121094 0.101824 167 167 167
0.000000 0.121094 0.097292 145 145 145
0.003906 0.121094 0.092601 131 131 131
0.007812 0.121094 0.086274 139 139 139
0.011719 0.121094 0.079308 169 169 169
0.015625 0.121094 0.073412 211 209 209
0.019531 0.121094 0.063985 223 218 219
0.023438 0.121094 0.028642 120 109 111
0.027344 0.121094 -0.027661 0 0 0
0.031250 0.121094 -0.027766 0 0 0
0.222656 0.121094 0.106442 176 136 134
0.226562 0.121094 0.085385 209 173 170
-0.378906 0.117188 0.001227 245 234 214
-0.375000 0.117188 0.007506 231 205 169
-0.371094 0.117188 0.016215 228 197 169
-0.367188 0.117188 0.023573 238 223 206
-0.363281 0.117188 0.023953 223 208 192
-0.167969 0.117188 0.039233 210 203 212
-0.164062 0.117188 0.048466 212 208 211
-0.160156 0.117188 0.059501 213 211 212
-0.156250 0.117188 0.069362 215 214 214
-0.152344 0.117188 0.076663 217 216 216
-0.148438 0.117188 0.083131 216 215 216
-0.144531 0.117188 0.090275 209 209 209
-0.140625 0.117188 0.098110 201 201 201
-0.136719 0.117188 0.105498 193 193 193
-0.132812 0.117188 0.111664 188 188 188
-0.128906 0.117188 0.117355 185 185 185
-0.125000 0.117188 0.123043 185 185 185
-0.121094 0.117188 0.128291 186 186 186
-0.117188 0.117188 0.133348 188 188 188
-0.113281 0.117188 0.138149 191 191 191
-0.109375 0.117188 0.142539 193 193 193
-0.105469 0.117188 0.146382 195 195 195
-0.101562 0.117188 0.149532 196 196 196
-0.097656 0.117188 0.152268 197 197 197
-0.093750 0.117188 0.154245 196 196 196
-0.089844 0.117188 0.155665 196 196 196
-0.085938 0.117188 0.156697 195 195 195
-0.082031 0.117188 0.157288 194 194 194
-0.078125 0.117188 0.157288 193 193 193
-0.074219 0.117188 0.156544 191 191 191
-0.070312 0.117188 0.155210 189 189 189
-0.066406 0.117188 0.153377 186 186 186
-0.062500 0.117188 0.151193 184 184 184
-0.058594 0.117188 0.148831 181 181 181
-0.054688 0.117188 0.146451 178 178 178
-0.050781 0.117188 0.143906 176 176 176
-0.046875 0.117188 0.141144 174 174 174
-0.042969 0.117188 0.138300 172 172 172
-0.039062 0.117188 0.135225 171 171 171
-0.035156 0.117188 0.132032 171 171 171
-0.031250 0.117188 0.128728 172 172 172
-0.027344 0.117188 0.125140 174 174 174
-0.023438 0.117188 0.121360 176 176 176
-0.019531 0.117188 0.117521 178 178 178
-0.015625 0.117188 0.113789 182 182 182
-0.011719 0.117188 0.109965 183 183 183
-0.007812 0.117188 0.105674 179 179 179
-0.003906 0.117188 0.101501 167 167 167
0.000000 0.117188 0.097111 142 142 142
0.003906 0.117188 0.092597 124 124 124
0.007812 0.117188 0.086477 129 129 129
0.011719 0.117188 0.079657 156 156 156
0.015625 0.117188 0.074098 197 195 195
0.019531 0.117188 0.064696 204 200 201
0.023438 0.117188 0.031330 71 66 67
0.027344 0.117188 -0.033641 0 0 0
0.031250 0.117188 -0.032918 0 0 0
0.226562 0.117188 0.030683 100 72 76
-0.378906 0.113281 0.042564 242 226 196
-0.375000 0.113281 0.038685 240 220 191
-0.371094 0.113281 0.031951 208 169 147
-0.167969 0.113281 0.042381 225 216 224
-0.164062 0.113281 0.050972 221 215 218
-0.160156 0.113281 0.061341 221 218 219
-0.156250 0.113281 0.070653 220 219 219
-0.152344 0.113281 0.077773 220 219 219
-0.148438 0.113281 0.084224 218 218 218
-0.144531 0.113281 0.091318 212 212 212
-0.140625 0.113281 0.099083 205 204 204
-0.136719 0.113281 0.106361 198 198 198
-0.132812 0.113281 0.112383 193 193 193
-0.128906 0.113281 0.117899 190 190 190
-0.125000 0.113281 0.123388 190 190 190
-0.121094 0.113281 0.128463 191 191 191
-0.117188 0.113281 0.133351 193 193 193
-0.113281 0.113281 0.138031 196 196 196
-0.109375 0.113281 0.142312 198 198 198
-0.105469 0.113281 0.146059 201 201 201
-0.101562 0.113281 0.149111 203 203 203
-0.097656 0.113281 0.151715 204 204 204
-0.093750 0.113281 0.153741 204 204 204
-0.089844 0.113281 0.155132 203 203 203
-0.085938 0.113281 0.156143 202 202 202
-0.082031 0.113281 0.156703 200 200 200
-0.078125 0.113281 0.156702 197 197 197
-0.074219 0.113281 0.156009 194 194 194
-0.070312 0.113281 0.154726 191 191 191
-0.066406 0.113281 0.152975 188 188 188
-0.062500 0.113281 0.150843 185 185 185
-0.058594 0.113281 0.148510 181 181 181
-0.054688 0.113281 0.146140 178 178 178
-0.050781 0.113281 0.143586 175 175 175
-0.046875 0.113281 0.140816 173 173 173
-0.042969 0.113281 0.137955 171 171 171
-0.039062 0.113281 0.134863 170 170 170
-0.035156 0.113281 0.131661 170 170 170
-0.031250 0.113281 0.128361 171 171 171
-0.027344 0.113281 0.124765 173 173 173
-0.023438 0.113281 0.120938 176 176 176
-0.019531 0.113281 0.116997 178 178 178
-0.015625 0.113281 0.113169 182 182 182
-0.011719 0.113281 0.109375 183 183 183
-0.007812 0.113281 0.105162 179 179 179
-0.003906 0.113281 0.101090 165 165 165
0.000000 0.113281 0.096861 137 137 137
0.003906 0.113281 0.092576 116 116 116
0.007812 0.113281 0.086659 119 119 119
0.011719 0.113281 0.080025 143 142 143
0.015625 0.113281 0.074773 179 177 177
0.019531 0.113281 0.065444 178 173 174
0.023438 0.113281 0.037073 44 39 41
0.027344 0.113281 -0.039996 0 0 0
-0.375000 0.109375 0.050933 231 196 165
-0.171875 0.109375 -0.005079 119 120 139
-0.167969 0.109375 0.045712 218 208 217
-0.164062 0.109375 0.053347 216 210 213
-0.160156 0.109375 0.063210 220 217 218
-0.156250 0.109375 0.072006 222 221 221
-0.152344 0.109375 0.078955 221 221 221
-0.148438 0.109375 0.085290 219 219 219
-0.144531 0.109375 0.092406 214 213 213
-0.140625 0.109375 0.100176 206 206 206
-0.136719 0.109375 0.107371 200 200 200
-0.132812 0.109375 0.113249 196 196 196
-0.128906 0.109375 0.118558 193 193 193
-0.125000 0.109375 0.123796 192 192 192
-0.121094 0.109375 0.128650 193 193 193
-0.117188 0.109375 0.133300 195 195 195
-0.113281 0.109375 0.137788 198 198 198
-0.109375 0.109375 0.141936 201 201 201
-0.105469 0.109375 0.145566 205 205 205
-0.101562 0.109375 0.148567 208 208 208
-0.097656 0.109375 0.151113 210 210 210
-0.093750 0.109375 0.153138 209 209 209
-0.089844 0.109375 0.154686 209 209 209
-0.085938 0.109375 0.155738 207 207 207
-0.082031 0.109375 0.156265 205 205 205
-0.078125 0.109375 0.156242 201 201 201
-0.074219 0.109375 0.155566 198 198 198
-0.070312 0.109375 0.154300 194 194 194
-0.066406 0.109375 0.152597 191 191 191
-0.062500 0.109375 0.150496 187 187 187
-0.058594 0.109375 0.148175 184 184 184
-0.054688 0.109375 0.145798 180 180 180
-0.050781 0.109375 0.143221 178 178 178
-0.046875 0.109375 0.140436 176 176 176
-0.042969 0.109375 0.137555 174 174 174
-0.039062 0.109375 0.134453 173 173 173
-0.035156 0.109375 0.131248 173 173 173
-0.031250 0.109375 0.127944 173 173 173
-0.027344 0.109375 0.124285 175 175 175
-0.023438 0.109375 0.120355 177 177 177
-0.019531 0.109375 0.116353 179 179 179
-0.015625 0.109375 0.112489 183 183 183
-0.011719 0.109375 0.108674 184 184 184
-0.007812 0.109375 0.104526 179 179 179
-0.003906 0.109375 0.100535 163 163 163
0.000000 0.109375 0.096443 134 134 134
0.003906 0.109375 0.092317 109 109 109
0.007812 0.109375 0.086574 109 109 109
0.011719 0.109375 0.080248 130 130 130
0.015625 0.109375 0.075370 160 156 158
0.019531 0.109375 0.065909 157 149 152
0.023438 0.109375 0.042947 42 35 39
0.027344 0.109375 -0.044583 0 0 0
-0.171875 0.105469 -0.009936 124 124 148
-0.167969 0.105469 0.047730 218 210 218
-0.164062 0.105469 0.055463 213 208 210
-0.160156 0.105469 0.064844 217 214 215
-0.156250 0.105469 0.073211 220 219 219
-0.152344 0.105469 0.080211 219 219 219
-0.148438 0.105469 0.086526 217 217 217
-0.144531 0.105469 0.093684 212 211 211
-0.140625 0.105469 0.101456 204 204 204
-0.136719 0.105469 0.108552 199 199 199
-0.132812 0.105469 0.114280 196 196 196
-0.128906 0.105469 0.119398 195 195 195
-0.125000 0.105469 0.124406 194 194 194
-0.121094 0.105469 0.129035 194 194 194
-0.117188 0.105469 0.133433 196 196 196
-0.113281 0.105469 0.137677 199 199 199
-0.109375 0.105469 0.141658 204 204 204
-0.105469 0.105469 0.145162 208 208 208
-0.101562 0.105469 0.148085 212 212 212
-0.097656 0.105469 0.150532 215 215 215
-0.093750 0.105469 0.152436 215 215 215
-0.089844 0.105469 0.154009 215 215 215
-0.085938 0.105469 0.155235 213 213 213
-0.082031 0.105469 0.155780 211 211 211
-0.078125 0.105469 0.155733 208 208 208
-0.074219 0.105469 0.155060 204 204 204
-0.070312 0.105469 0.153795 201 201 201
-0.066406 0.105469 0.152125 198 198 198
-0.062500 0.105469 0.150058 194 194 194
-0.058594 0.105469 0.147755 191 191 191
-0.054688 0.105469 0.145369 189 189 189
-0.050781 0.105469 0.142778 186 186 186
-0.046875 0.105469 0.139981 184 184 184
-0.042969 0.105469 0.137084 182 182 182
-0.039062 0.105469 0.133977 181 181 181
-0.035156 0.105469 0.130748 180 180 180
-0.031250 0.105469 0.127391 180 180 180
-0.027344 0.105469 0.123702 180 180 180
-0.023438 0.105469 0.119760 180 180 180
-0.019531 0.105469 0.115731 181 181 181
-0.015625 0.105469 0.111815 182 182 182
-0.011719 0.105469 0.107983 181 181 181
-0.007812 0.105469 0.103923 174 174 174
-0.003906 0.105469 0.100027 157 157 157
0.000000 0.105469 0.096091 127 127 127
0.003906 0.105469 0.092108 102 102 102
0.007812 0.105469 0.086486 103 103 103
0.011719 0.105469 0.080274 120 119 119
0.015625 0.105469 0.075245 139 133 136
0.019531 0.105469 0.065367 146 134 141
0.023438 0.105469 0.048145 74 61 70
0.027344 0.105469 -0.046083 0 0 0
-0.171875 0.101562 -0.012096 209 208 219
-0.167969 0.101562 0.050771 239 234 239
-0.164062 0.101562 0.057989 225 220 223
-0.160156 0.101562 0.066811 222 220 221
-0.156250 0.101562 0.074533 224 223 223
-0.152344 0.101562 0.081565 223 223 223
-0.148438 0.101562 0.087853 222 222 222
-0.144531 0.101562 0.095070 217 217 217
-0.140625 0.101562 0.102842 211 211 211
-0.136719 0.101562 0.109840 207 207 207
-0.132812 0.101562 0.115403 206 206 206
-0.128906 0.101562 0.120331 205 205 205
-0.125000 0.101562 0.125113 205 205 205
-0.121094 0.101562 0.129494 205 205 205
-0.117188 0.101562 0.133631 205 205 205
-0.113281 0.101562 0.137625 207 207 207
-0.109375 0.101562 0.141392 210 210 210
-0.105469 0.101562 0.144761 214 214 214
-0.101562 0.101562 0.147606 218 218 218
-0.097656 0.101562 0.149991 221 221 221
-0.093750 0.101562 0.151851 223 223 223
-0.089844 0.101562 0.153372 223 223 223
-0.085938 0.101562 0.154643 222 222 222
-0.082031 0.101562 0.155376 220 220 220
-0.078125 0.101562 0.155401 218 218 218
-0.074219 0.101562 0.154740 215 215 215
-0.070312 0.101562 0.153476 213 213 213
-0.066406 0.101562 0.151811 210 210 210
-0.062500 0.101562 0.149759 208 208 208
-0.058594 0.101562 0.147460 205 205 205
-0.054688 0.101562 0.145036 203 203 203
-0.050781 0.101562 0.142406 200 200 200
-0.046875 0.101562 0.139570 199 199 199
-0.042969 0.101562 0.136625 196 196 196
-0.039062 0.101562 0.133460 194 194 194
-0.035156 0.101562 0.130159 193 193 193
-0.031250 0.101562 0.126833 192 192 192
-0.027344 0.101562 0.123161 191 191 191
-0.023438 0.101562 0.119188 188 188 188
-0.019531 0.101562 0.115130 185 185 185
-0.015625 0.101562 0.111189 183 183 183
-0.011719 0.101562 0.107379 179 179 179
-0.007812 0.101562 0.103446 170 170 170
-0.003906 0.101562 0.099659 155 155 155
0.000000 0.101562 0.095826 130 130 130
0.003906 0.101562 0.091935 111 111 111
0.007812 0.101562 0.086451 116 116 116
0.011719 0.101562 0.080463 131 129 130
0.015625 0.101562 0.075572 143 132 139
0.019531 0.101562 0.065451 167 148 160
0.023438 0.101562 0.052147 165 141 160
0.027344 0.101562 -0.044710 7 5 7
-0.171875 0.097656 -0.008743 225 221 230
-0.167969 0.097656 0.053340 236 233 236
-0.164062 0.097656 0.059926 223 219 221
-0.160156 0.097656 0.068644 223 221 222
-0.156250 0.097656 0.075906 228 227 228
-0.152344 0.097656 0.082917 230 230 230
-0.148438 0.097656 0.089173 230 230 230
-0.144531 0.097656 0.096475 225 225 225
-0.140625 0.097656 0.104235 220 220 220
-0.136719 0.097656 0.111162 217 217 217
-0.132812 0.097656 0.116587 216 216 216
-0.128906 0.097656 0.121348 216 216 216
-0.125000 0.097656 0.125916 217 217 217
-0.121094 0.097656 0.130037 217 217 217
-0.117188 0.097656 0.133889 216 216 216
-0.113281 0.097656 0.137575 217 217 217
-0.109375 0.097656 0.141065 219 218 218
-0.105469 0.097656 0.144197 222 221 221
-0.101562 0.097656 0.146911 225 225 225
-0.097656 0.097656 0.149229 227 227 227
-0.093750 0.097656 0.151054 229 229 229
-0.089844 0.097656 0.152534 230 230 230
-0.085938 0.097656 0.153770 229 229 229
-0.082031 0.097656 0.154456 228 228 228
-0.078125 0.097656 0.154578 226 226 226
-0.074219 0.097656 0.154074 225 225 225
-0.070312 0.097656 0.152882 223 223 223
-0.066406 0.097656 0.151245 221 221 221
-0.062500 0.097656 0.149237 220 220 220
-0.058594 0.097656 0.146976 218 218 218
-0.054688 0.097656 0.144538 216 216 216
-0.050781 0.097656 0.141885 214 214 214
-0.046875 0.097656 0.139002 212 212 212
-0.042969 0.097656 0.135963 210 210 210
-0.039062 0.097656 0.132754 207 207 207
-0.035156 0.097656 0.129492 206 206 206
-0.031250 0.097656 0.126196 205 205 205
-0.027344 0.097656 0.122550 205 205 205
-0.023438 0.097656 0.118577 202 202 202
-0.019531 0.097656 0.114535 198 198 198
-0.015625 0.097656 0.110614 193 193 193
-0.011719 0.097656 0.106854 186 186 186
-0.007812 0.097656 0.103051 173 173 173
-0.003906 0.097656 0.099349 156 156 156
0.000000 0.097656 0.095589 132 132 132
0.003906 0.097656 0.091689 115 115 115
0.007812 0.097656 0.086323 121 121 121
0.011719 0.097656 0.080467 136 133 135
0.015625 0.097656 0.075610 142 130 139
0.019531 0.097656 0.065621 164 146 160
0.023438 0.097656 0.055145 188 160 180
0.027344 0.097656 -0.038323 28 20 24
-0.171875 0.093750 -0.004951 245 243 247
-0.167969 0.093750 0.054909 236 232 235
-0.164062 0.093750 0.061628 215 211 213
-0.160156 0.093750 0.070365 215 213 214
-0.156250 0.093750 0.077270 222 222 222
-0.152344 0.093750 0.084284 227 227 227
-0.148438 0.093750 0.090559 228 228 228
-0.144531 0.093750 0.097919 225 224 224
-0.140625 0.093750 0.105647 220 220 220
-0.136719 0.093750 0.112470 219 219 219
-0.132812 0.093750 0.117738 220 220 220
-0.128906 0.093750 0.122320 221 221 221
-0.125000 0.093750 0.126674 222 222 222
-0.121094 0.093750 0.130566 222 222 222
-0.117188 0.093750 0.134168 222 222 222
-0.113281 0.093750 0.137574 223 223 223
-0.109375 0.093750 0.140814 225 225 225
-0.105469 0.093750 0.143728 228 228 228
-0.101562 0.093750 0.146278 230 230 230
-0.097656 0.093750 0.148507 231 231 231
-0.093750 0.093750 0.150278 232 232 232
-0.089844 0.093750 0.151726 232 232 232
-0.085938 0.093750 0.152943 231 231 231
-0.082031 0.093750 0.153615 231 231 231
-0.078125 0.093750 0.153677 230 230 230
-0.074219 0.093750 0.153136 228 228 228
-0.070312 0.093750 0.152003 227 227 227
-0.066406 0.093750 0.150419 226 226 226
-0.062500 0.093750 0.148471 224 224 224
-0.058594 0.093750 0.146249 223 223 223
-0.054688 0.093750 0.143780 221 221 221
-0.050781 0.093750 0.141074 220 220 220
-0.046875 0.093750 0.138109 218 218 218
-0.042969 0.093750 0.135062 216 216 216
-0.039062 0.093750 0.131919 214 214 214
-0.035156 0.093750 0.128696 214 214 214
-0.031250 0.093750 0.125434 215 215 215
-0.027344 0.093750 0.121827 216 216 216
-0.023438 0.093750 0.117917 216 216 216
-0.019531 0.093750 0.113964 213 213 213
-0.015625 0.093750 0.110155 206 206 206
-0.011719 0.093750 0.106537 194 194 194
-0.007812 0.093750 0.102887 173 173 173
-0.003906 0.093750 0.099318 147 147 147
0.000000 0.093750 0.095669 119 119 119
0.003906 0.093750 0.091815 106 106 106
0.007812 0.093750 0.086698 121 121 121
0.011719 0.093750 0.081111 144 139 143
0.015625 0.093750 0.076264 151 137 148
0.019531 0.093750 0.065775 151 130 147
0.023438 0.093750 0.055856 142 106 135
0.027344 0.093750 -0.031115 20 12 19
-0.171875 0.089844 0.003366 252 251 252
-0.167969 0.089844 0.057034 243 238 241
-0.164062 0.089844 0.062771 222 215 218
-0.160156 0.089844 0.071719 215 212 213
-0.156250 0.089844 0.078525 219 217 218
-0.152344 0.089844 0.085479 223 222 222
-0.148438 0.089844 0.091769 224 224 224
-0.144531 0.089844 0.099169 220 220 220
-0.140625 0.089844 0.106824 216 215 215
-0.136719 0.089844 0.113535 216 216 216
-0.132812 0.089844 0.118643 219 218 218
-0.128906 0.089844 0.123041 221 221 221
-0.125000 0.089844 0.127199 223 223 223
-0.121094 0.089844 0.130911 224 224 224
-0.117188 0.089844 0.134314 225 225 225
-0.113281 0.089844 0.137485 227 227 227
-0.109375 0.089844 0.140502 230 230 230
-0.105469 0.089844 0.143235 233 232 232
-0.101562 0.089844 0.145661 234 234 234
-0.097656 0.089844 0.147815 234 234 234
-0.093750 0.089844 0.149551 234 234 234
-0.089844 0.089844 0.151027 234 234 234
-0.085938 0.089844 0.152303 235 235 235
-0.082031 0.089844 0.153017 235 235 235
-0.078125 0.089844 0.153105 235 235 235
-0.074219 0.089844 0.152524 234 234 234
-0.070312 0.089844 0.151325 233 233 233
-0.066406 0.089844 0.149676 231 231 231
-0.062500 0.089844 0.147692 230 230 230
-0.058594 0.089844 0.145450 228 228 228
-0.054688 0.089844 0.142922 227 227 227
-0.050781 0.089844 0.140177 225 225 225
-0.046875 0.089844 0.137217 223 223 223
-0.042969 0.089844 0.134182 222 222 222
-0.039062 0.089844 0.131036 221 221 221
-0.035156 0.089844 0.127800 222 222 222
-0.031250 0.089844 0.124545 224 224 224
-0.027344 0.089844 0.120959 225 225 225
-0.023438 0.089844 0.117110 223 223 223
-0.019531 0.089844 0.113247 218 218 218
-0.015625 0.089844 0.109559 208 208 208
-0.011719 0.089844 0.106078 190 190 190
-0.007812 0.089844 0.102590 163 163 163
-0.003906 0.089844 0.099160 134 135 134
0.000000 0.089844 0.095522 108 108 108
0.003906 0.089844 0.091570 100 100 100
0.007812 0.089844 0.086464 121 121 121
0.011719 0.089844 0.081259 153 147 151
0.015625 0.089844 0.076411 167 152 163
0.019531 0.089844 0.066944 154 133 151
0.023438 0.089844 0.056651 119 87 116
0.027344 0.089844 -0.025960 16 11 20
-0.171875 0.085938 0.003522 247 244 248
-0.167969 0.085938 0.057670 241 235 239
-0.164062 0.085938 0.063055 229 219 223
-0.160156 0.085938 0.072311 221 214 216
-0.156250 0.085938 0.079333 218 215 216
-0.152344 0.085938 0.086329 218 216 217
-0.148438 0.085938 0.092632 219 218 218
-0.144531 0.085938 0.100088 217 214 215
-0.140625 0.085938 0.107626 214 211 212
-0.136719 0.085938 0.114178 215 212 213
-0.132812 0.085938 0.119109 218 216 217
-0.128906 0.085938 0.123365 220 219 219
-0.125000 0.085938 0.127410 223 222 222
-0.121094 0.085938 0.130994 224 224 224
-0.117188 0.085938 0.134226 224 224 224
-0.113281 0.085938 0.137193 225 225 225
-0.109375 0.085938 0.139995 228 227 227
-0.105469 0.085938 0.142522 231 231 231
-0.101562 0.085938 0.144786 233 233 233
-0.097656 0.085938 0.146812 234 234 234
-0.093750 0.085938 0.148463 235 235 235
-0.089844 0.085938 0.149925 237 237 237
-0.085938 0.085938 0.151220 239 239 239
-0.082031 0.085938 0.151945 241 241 241
-0.078125 0.085938 0.152049 242 242 242
-0.074219 0.085938 0.151496 242 242 242
-0.070312 0.085938 0.150328 241 241 241
-0.066406 0.085938 0.148713 239 239 239
-0.062500 0.085938 0.146749 238 238 238
-0.058594 0.085938 0.144523 237 237 237
-0.054688 0.085938 0.141997 236 236 236
-0.050781 0.085938 0.139273 234 234 234
-0.046875 0.085938 0.136336 232 232 232
-0.042969 0.085938 0.133303 230 230 230
-0.039062 0.085938 0.130152 229 228 229
-0.035156 0.085938 0.126906 228 228 228
-0.031250 0.085938 0.123650 228 228 228
-0.027344 0.085938 0.120102 227 227 227
-0.023438 0.085938 0.116294 224 224 224
-0.019531 0.085938 0.112462 216 216 216
-0.015625 0.085938 0.108812 202 202 202
-0.011719 0.085938 0.105353 178 178 178
-0.007812 0.085938 0.101958 149 149 149
-0.003906 0.085938 0.098594 122 122 122
0.000000 0.085938 0.094976 97 97 97
0.003906 0.085938 0.090972 87 87 87
0.007812 0.085938 0.085859 98 97 98
0.011719 0.085938 0.080937 125 120 125
0.015625 0.085938 0.075304 145 136 147
0.019531 0.085938 0.065917 138 126 143
0.023438 0.085938 0.054183 90 74 99
0.027344 0.085938 -0.011223 13 12 24
-0.171875 0.082031 -0.008421 234 228 237
-0.167969 0.082031 0.057450 243 236 242
-0.164062 0.082031 0.063379 240 230 236
-0.160156 0.082031 0.072054 232 222 228
-0.156250 0.082031 0.079219 220 214 219
-0.152344 0.082031 0.086390 212 207 212
-0.148438 0.082031 0.092727 210 203 208
-0.144531 0.082031 0.100292 212 204 209
-0.140625 0.082031 0.107810 216 208 212
-0.136719 0.082031 0.114295 221 213 216
-0.132812 0.082031 0.119124 224 217 219
-0.128906 0.082031 0.123307 225 220 221
-0.125000 0.082031 0.127381 225 223 223
-0.121094 0.082031 0.130925 225 224 224
-0.117188 0.082031 0.134031 223 222 222
-0.113281 0.082031 0.136838 221 221 221
-0.109375 0.082031 0.139409 222 222 222
-0.105469 0.082031 0.141680 226 226 226
-0.101562 0.082031 0.143733 230 230 230
-0.097656 0.082031 0.145619 231 231 231
-0.093750 0.082031 0.147222 233 233 233
-0.089844 0.082031 0.148678 235 235 235
-0.085938 0.082031 0.149981 238 238 238
-0.082031 0.082031 0.150680 241 241 241
-0.078125 0.082031 0.150774 242 242 242
-0.074219 0.082031 0.150252 243 243 243
-0.070312 0.082031 0.149135 242 242 242
-0.066406 0.082031 0.147584 241 241 241
-0.062500 0.082031 0.145668 240 240 240
-0.058594 0.082031 0.143479 239 239 239
-0.054688 0.082031 0.140983 238 238 238
-0.050781 0.082031 0.138295 237 237 237
-0.046875 0.082031 0.135407 236 236 236
-0.042969 0.082031 0.132411 235 235 235
-0.039062 0.082031 0.129271 234 234 234
-0.035156 0.082031 0.126008 232 232 232
-0.031250 0.082031 0.122723 229 229 229
-0.027344 0.082031 0.119138 226 226 226
-0.023438 0.082031 0.115209 222 222 222
-0.019531 0.082031 0.111195 215 214 215
-0.015625 0.082031 0.107356 201 201 201
-0.011719 0.082031 0.103673 173 173 173
-0.007812 0.082031 0.100192 141 142 142
-0.003906 0.082031 0.096755 121 122 122
0.000000 0.082031 0.093177 105 105 105
0.003906 0.082031 0.089283 92 92 92
0.007812 0.082031 0.084464 95 94 96
0.011719 0.082031 0.080110 120 117 124
0.015625 0.082031 0.073403 143 138 150
0.019531 0.082031 0.062248 127 122 138
0.023438 0.082031 0.047791 63 60 82
0.027344 0.082031 0.011883 10 11 27
-0.171875 0.078125 -0.014919 182 170 193
-0.167969 0.078125 0.053019 242 237 242
-0.164062 0.078125 0.061467 248 244 247
-0.160156 0.078125 0.071128 246 242 245
-0.156250 0.078125 0.079177 241 236 241
-0.152344 0.078125 0.086633 233 227 234
-0.148438 0.078125 0.092960 224 216 224
-0.144531 0.078125 0.100462 225 215 223
-0.140625 0.078125 0.107980 230 221 227
-0.136719 0.078125 0.114402 231 223 228
-0.132812 0.078125 0.119149 232 224 227
-0.128906 0.078125 0.123250 233 226 228
-0.125000 0.078125 0.127292 232 227 228
-0.121094 0.078125 0.130722 230 228 228
-0.117188 0.078125 0.133670 226 225 225
-0.113281 0.078125 0.136308 223 222 222
-0.109375 0.078125 0.138667 221 221 221
-0.105469 0.078125 0.140831 223 222 222
-0.101562 0.078125 0.142804 227 227 227
-0.097656 0.078125 0.144626 230 230 230
-0.093750 0.078125 0.146201 232 232 232
-0.089844 0.078125 0.147601 235 235 235
-0.085938 0.078125 0.148875 238 238 238
-0.082031 0.078125 0.149546 241 241 241
-0.078125 0.078125 0.149628 243 243 243
-0.074219 0.078125 0.149106 244 244 244
-0.070312 0.078125 0.147998 245 245 245
-0.066406 0.078125 0.146486 245 245 245
-0.062500 0.078125 0.144594 245 245 245
-0.058594 0.078125 0.142430 244 244 244
-0.054688 0.078125 0.139961 243 243 243
-0.050781 0.078125 0.137308 242 242 242
-0.046875 0.078125 0.134477 242 242 242
-0.042969 0.078125 0.131531 242 242 242
-0.039062 0.078125 0.128443 239 239 239
-0.035156 0.078125 0.125209 235 235 235
-0.031250 0.078125 0.121925 227 227 227
-0.027344 0.078125 0.118293 219 218 218
-0.023438 0.078125 0.114301 213 211 212
-0.019531 0.078125 0.110245 210 207 208
-0.015625 0.078125 0.106318 201 200 201
-0.011719 0.078125 0.102509 180 180 181
-0.007812 0.078125 0.098891 162 162 164
-0.003906 0.078125 0.095156 163 164 165
0.000000 0.078125 0.091125 165 165 166
0.003906 0.078125 0.086603 152 152 153
0.007812 0.078125 0.080922 140 139 142
0.011719 0.078125 0.075477 149 146 153
0.015625 0.078125 0.067612 147 145 156
0.019531 0.078125 0.056933 108 105 125
0.023438 0.078125 0.042970 78 79 115
0.027344 0.078125 0.027774 45 55 93
0.031250 0.078125 -0.033360 5 6 21
-0.171875 0.074219 -0.014102 169 153 187
-0.167969 0.074219 0.043167 239 235 241
-0.164062 0.074219 0.056796 248 246 248
-0.160156 0.074219 0.068675 247 246 248
-0.156250 0.074219 0.078268 246 245 247
-0.152344 0.074219 0.086216 242 240 243
-0.148438 0.074219 0.093006 236 233 237
-0.144531 0.074219 0.100390 237 235 238
-0.140625 0.074219 0.107783 240 238 240
-0.136719 0.074219 0.113995 240 237 239
-0.132812 0.074219 0.118662 238 235 237
-0.128906 0.074219 0.122688 239 236 237
-0.125000 0.074219 0.126567 238 236 236
-0.121094 0.074219 0.129763 236 234 234
-0.117188 0.074219 0.132503 231 230 230
-0.113281 0.074219 0.134960 223 221 222
-0.109375 0.074219 0.137144 214 212 213
-0.105469 0.074219 0.139311 211 210 210
-0.101562 0.074219 0.141262 217 215 216
-0.097656 0.074219 0.142968 225 223 223
-0.093750 0.074219 0.144423 229 228 228
-0.089844 0.074219 0.145678 233 232 233
-0.085938 0.074219 0.146851 237 237 237
-0.082031 0.074219 0.147463 241 241 241
-0.078125 0.074219 0.147501 244 244 244
-0.074219 0.074219 0.146974 246 246 246
-0.070312 0.074219 0.145948 247 247 247
-0.066406 0.074219 0.144567 247 247 247
-0.062500 0.074219 0.142787 247 247 247
-0.058594 0.074219 0.140726 247 246 246
-0.054688 0.074219 0.138320 246 245 245
-0.050781 0.074219 0.135706 245 244 244
-0.046875 0.074219 0.132923 244 244 244
-0.042969 0.074219 0.130033 243 243 243
-0.039062 0.074219 0.127024 239 239 239
-0.035156 0.074219 0.123845 230 229 229
-0.031250 0.074219 0.120582 215 213 213
-0.027344 0.074219 0.116962 201 197 198
-0.023438 0.074219 0.113125 196 192 194
-0.019531 0.074219 0.109328 202 199 201
-0.015625 0.074219 0.105540 204 204 206
-0.011719 0.074219 0.101824 200 200 203
-0.007812 0.074219 0.098233 200 200 204
-0.003906 0.074219 0.094367 205 205 209
0.000000 0.074219 0.089946 202 202 205
0.003906 0.074219 0.084786 178 178 181
0.007812 0.074219 0.078395 137 136 141
0.011719 0.074219 0.071858 128 121 131
0.015625 0.074219 0.063391 112 104 121
0.019531 0.074219 0.052897 111 100 124
0.023438 0.074219 0.038995 197 186 194
0.027344 0.074219 0.028968 199 195 196
0.031250 0.074219 0.006130 77 70 85
-0.171875 0.070312 -0.001905 206 207 217
-0.167969 0.070312 0.038941 224 227 230
-0.164062 0.070312 0.054484 221 222 226
-0.160156 0.070312 0.066535 220 221 226
-0.156250 0.070312 0.076829 221 223 228
-0.152344 0.070312 0.085317 217 219 223
-0.148438 0.070312 0.092754 214 216 218
-0.144531 0.070312 0.100095 224 225 227
-0.140625 0.070312 0.107259 233 233 234
-0.136719 0.070312 0.113288 237 236 236
-0.132812 0.070312 0.117943 237 236 236
-0.128906 0.070312 0.121909 236 235 235
-0.125000 0.070312 0.125672 235 234 233
-0.121094 0.070312 0.128701 234 232 232
-0.117188 0.070312 0.131253 230 227 228
-0.113281 0.070312 0.133551 219 216 217
-0.109375 0.070312 0.135532 208 203 204
-0.105469 0.070312 0.137521 206 200 201
-0.101562 0.070312 0.139303 217 210 211
-0.097656 0.070312 0.140914 229 221 222
-0.093750 0.070312 0.142375 232 226 227
-0.089844 0.070312 0.143673 232 229 230
-0.085938 0.070312 0.144887 234 233 233
-0.082031 0.070312 0.145459 237 236 236
-0.078125 0.070312 0.145399 240 239 239
-0.074219 0.070312 0.144851 242 242 242
-0.070312 0.070312 0.143915 244 243 243
-0.066406 0.070312 0.142637 244 243 244
-0.062500 0.070312 0.140956 244 243 243
-0.058594 0.070312 0.138985 242 242 242
-0.054688 0.070312 0.136647 241 240 240
-0.050781 0.070312 0.134094 240 239 239
-0.046875 0.070312 0.131391 240 239 239
-0.042969 0.070312 0.128585 238 238 238
-0.039062 0.070312 0.125640 233 233 233
-0.035156 0.070312 0.122478 222 221 221
-0.031250 0.070312 0.119211 205 201 203
-0.027344 0.070312 0.115655 190 184 188
-0.023438 0.070312 0.111891 185 181 184
-0.019531 0.070312 0.108161 188 188 188
-0.015625 0.070312 0.104359 190 193 192
-0.011719 0.070312 0.100532 191 192 194
-0.007812 0.070312 0.096804 188 188 192
-0.003906 0.070312 0.092918 172 170 179
0.000000 0.070312 0.088678 154 152 164
0.003906 0.070312 0.083610 108 115 125
0.007812 0.070312 0.077315 95 103 107
0.011719 0.070312 0.071039 176 168 162
0.015625 0.070312 0.063029 195 180 178
0.019531 0.070312 0.052929 189 172 173
0.023438 0.070312 0.039585 212 197 192
0.027344 0.070312 0.025272 207 194 188
0.031250 0.070312 0.016476 146 129 133
0.035156 0.070312 -0.017539 1 0 1
-0.175781 0.066406 -0.043111 95 105 132
-0.171875 0.066406 0.012452 191 203 208
-0.167969 0.066406 0.037453 204 216 212
-0.164062 0.066406 0.054924 181 194 193
-0.160156 0.066406 0.067041 171 181 185
-0.156250 0.066406 0.077430 179 186 189
-0.152344 0.066406 0.086135 187 191 190
-0.148438 0.066406 0.093694 189 190 186
-0.144531 0.066406 0.100907 169 171 170
-0.140625 0.066406 0.107778 148 148 152
-0.136719 0.066406 0.113545 168 164 165
-0.132812 0.066406 0.118020 188 180 179
-0.128906 0.066406 0.121769 190 181 180
-0.125000 0.066406 0.125370 189 179 180
-0.121094 0.066406 0.128260 194 184 187
-0.117188 0.066406 0.130560 196 189 191
-0.113281 0.066406 0.132603 193 185 188
-0.109375 0.066406 0.134352 193 180 185
-0.105469 0.066406 0.135991 201 187 193
-0.101562 0.066406 0.137470 219 208 212
-0.097656 0.066406 0.138973 233 224 227
-0.093750 0.066406 0.140326 236 229 231
-0.089844 0.066406 0.141510 236 231 233
-0.085938 0.066406 0.142634 237 233 234
-0.082031 0.066406 0.143086 237 234 235
-0.078125 0.066406 0.142920 238 236 236
-0.074219 0.066406 0.142379 240 238 238
-0.070312 0.066406 0.141544 241 239 240
-0.066406 0.066406 0.140351 242 240 240
-0.062500 0.066406 0.138764 241 239 239
-0.058594 0.066406 0.136880 239 237 238
-0.054688 0.066406 0.134671 238 235 236
-0.050781 0.066406 0.132286 236 233 234
-0.046875 0.066406 0.129780 234 233 233
-0.042969 0.066406 0.127176 231 230 230
-0.039062 0.066406 0.124475 225 224 224
-0.035156 0.066406 0.121610 210 209 210
-0.031250 0.066406 0.118596 185 182 185
-0.027344 0.066406 0.115289 162 158 163
-0.023438 0.066406 0.111651 145 142 147
-0.019531 0.066406 0.107986 131 131 133
-0.015625 0.066406 0.104347 125 126 127
-0.011719 0.066406 0.100627 119 117 119
-0.007812 0.066406 0.096806 99 96 102
-0.003906 0.066406 0.092943 107 99 111
0.000000 0.066406 0.088890 176 167 171
0.003906 0.066406 0.083865 189 188 185
0.007812 0.066406 0.077430 178 181 175
0.011719 0.066406 0.070794 205 200 193
0.015625 0.066406 0.062805 209 199 194
0.019531 0.066406 0.053050 193 181 179
0.023438 0.066406 0.040710 175 165 160
0.027344 0.066406 0.027736 185 173 172
0.031250 0.066406 0.014963 217 204 205
0.035156 0.066406 0.003069 8 3 4
-0.175781 0.062500 -0.013751 209 220 222
-0.171875 0.062500 0.019321 183 198 203
-0.167969 0.062500 0.039218 186 198 197
-0.164062 0.062500 0.057009 193 197 198
-0.160156 0.062500 0.068653 188 187 190
-0.156250 0.062500 0.078842 186 182 187
-0.152344 0.062500 0.087275 186 182 185
-0.148438 0.062500 0.094472 188 184 183
-0.144531 0.062500 0.101430 185 182 182
-0.140625 0.062500 0.108060 166 163 163
-0.136719 0.062500 0.113534 164 153 153
-0.132812 0.062500 0.117702 179 160 160
-0.128906 0.062500 0.121222 185 158 159
-0.125000 0.062500 0.124575 183 155 158
-0.121094 0.062500 0.127207 153 127 131
-0.117188 0.062500 0.129182 109 90 98
-0.113281 0.062500 0.130829 116 98 110
-0.109375 0.062500 0.132262 140 119 133
-0.105469 0.062500 0.133564 156 136 148
-0.101562 0.062500 0.134705 179 162 172
-0.097656 0.062500 0.135986 204 186 196
-0.093750 0.062500 0.137043 213 196 205
-0.089844 0.062500 0.137837 217 207 212
-0.085938 0.062500 0.138703 226 218 222
-0.082031 0.062500 0.139171 231 223 226
-0.078125 0.062500 0.139118 234 226 229
-0.074219 0.062500 0.138752 236 230 232
-0.070312 0.062500 0.138134 237 232 234
-0.066406 0.062500 0.137130 237 234 235
-0.062500 0.062500 0.135760 236 233 234
-0.058594 0.062500 0.134050 235 231 232
-0.054688 0.062500 0.131995 231 227 228
-0.050781 0.062500 0.129777 225 221 222
-0.046875 0.062500 0.127433 217 214 214
-0.042969 0.062500 0.124974 202 201 201
-0.039062 0.062500 0.122516 178 178 178
-0.035156 0.062500 0.120072 140 140 142
-0.031250 0.062500 0.117419 105 102 109
-0.027344 0.062500 0.114320 86 84 91
-0.023438 0.062500 0.110862 71 72 77
-0.019531 0.062500 0.107424 87 83 88
-0.015625 0.062500 0.104089 142 131 130
-0.011719 0.062500 0.100723 168 153 147
-0.007812 0.062500 0.097112 163 146 145
-0.003906 0.062500 0.093388 166 151 156
0.000000 0.062500 0.089355 198 186 187
0.003906 0.062500 0.084291 206 197 196
0.007812 0.062500 0.077762 194 188 188
0.011719 0.062500 0.070690 192 187 189
0.015625 0.062500 0.062893 188 180 184
0.019531 0.062500 0.053433 186 177 181
0.023438 0.062500 0.041291 170 164 166
0.027344 0.062500 0.028773 181 171 176
0.031250 0.062500 0.015330 231 222 222
0.035156 0.062500 0.002257 17 6 8
-0.175781 0.058594 0.006602 227 233 233
-0.171875 0.058594 0.023982 185 198 202
-0.167969 0.058594 0.042569 176 185 186
-0.164062 0.058594 0.058952 180 181 184
-0.160156 0.058594 0.069868 174 168 175
-0.156250 0.058594 0.079912 169 162 170
-0.152344 0.058594 0.088011 161 157 164
-0.148438 0.058594 0.095135 156 155 161
-0.144531 0.058594 0.101802 172 170 173
-0.140625 0.058594 0.108218 179 175 176
-0.136719 0.058594 0.113438 174 166 168
-0.132812 0.058594 0.117342 176 163 165
-0.128906 0.058594 0.120680 175 155 157
-0.125000 0.058594 0.123768 177 156 157
-0.121094 0.058594 0.126144 170 154 150
-0.117188 0.058594 0.128031 153 142 139
-0.113281 0.058594 0.129551 160 149 147
-0.109375 0.058594 0.130870 165 154 152
-0.105469 0.058594 0.132167 161 152 150
-0.101562 0.058594 0.133188 163 152 152
-0.097656 0.058594 0.134283 178 160 165
-0.093750 0.058594 0.135230 162 134 147
-0.089844 0.058594 0.135909 120 92 110
-0.085938 0.058594 0.136719 134 104 121
-0.082031 0.058594 0.137342 165 128 146
-0.078125 0.058594 0.137441 181 147 162
-0.074219 0.058594 0.137228 190 161 173
-0.070312 0.058594 0.136773 191 169 178
-0.066406 0.058594 0.135872 192 174 181
-0.062500 0.058594 0.134634 191 175 180
